ncols        745
nrows        32
xllcorner    20.4270833333
yllcorner    49.7348611111
cellsize     0.000277777778
NODATA_value -32768
478 480 486 488 495 501 505 506 505 498 493 488 487 488 485 484 488 492 494 496 498 497 496 496 496 495 493 494 497 499 502 501 500 502 504 504 506 506 507 508 509 509 510 511 512 514 516 516 517 517 517 517 514 511 508 505 506 506 501 496 489 483 479 476 474 472 470 467 464 460 458 456 456 457 457 455 455 452 448 445 442 437 433 436 447 451 458 463 471 482 492 503 508 512 520 530 538 546 550 556 559 561 559 559 560 567 565 563 564 562 565 566 567 570 573 576 577 572 566 556 548 540 533 527 521 516 509 501 495 488 481 475 471 469 466 464 464 465 468 472 476 481 484 486 488 492 498 510 522 535 551 560 567 571 574 577 581 587 593 597 600 602 606 610 612 616 621 627 633 640 644 647 649 650 650 651 644 641 633 629 625 620 617 615 613 611 604 603 600 600 596 594 593 595 596 596 592 589 586 584 582 578 576 581 582 581 577 569 565 559 554 551 547 542 539 533 526 517 512 508 504 499 493 483 470 459 448 442 439 439 441 444 445 446 445 448 452 458 464 474 497 506 519 526 531 531 528 521 517 515 515 515 518 521 527 529 537 545 562 567 577 587 596 600 599 595 587 579 574 565 559 556 549 545 545 542 541 546 549 556 562 569 572 575 581 586 589 593 596 597 595 594 592 591 589 583 578 574 569 566 563 557 551 545 539 533 531 525 517 514 509 504 500 490 485 473 461 451 444 438 431 422 417 413 412 412 411 414 419 422 427 429 430 431 434 439 442 445 449 454 456 458 460 463 465 467 470 473 476 475 477 484 486 489 491 491 488 483 479 476 472 470 466 461 455 450 446 441 436 434 437 440 441 439 437 435 428 421 417 416 416 417 416 414 412 412 412 411 410 412 415 419 422 422 421 420 420 416 411 404 398 393 388 384 380 380 382 385 386 382 382 382 381 379 374 367 361 357 355 353 351 349 347 347 349 349 348 344 340 336 334 332 331 331 332 332 331 329 327 326 327 326 325 325 323 321 321 321 320 319 319 318 317 317 317 318 317 318 318 317 315 313 313 314 314 317 319 322 317 315 314 315 316 315 314 312 310 307 301 297 297 296 296 296 288 290 288 288 289 289 289 288 288 284 281 278 277 276 275 273 273 272 273 273 274 273 272 272 274 275 276 275 272 270 268 267 268 268 269 268 270 271 268 265 263 264 265 268 270 271 271 272 271 270 267 266 266 267 268 269 270 270 271 274 276 276 276 276 277 277 276 276 278 280 281 282 281 283 282 280 280 278 276 277 277 276 275 274 272 273 273 273 274 277 281 282 280 279 278 276 276 279 276 278 280 284 287 289 288 288 286 275 273 265 264 265 265 260 252 249 248 250 251 249 249 250 253 258 262 276 292 301 308 314 319 321 324 329 331 331 330 326 322 322 326 332 338 343 347 353 361 366 370 376 382 387 391 392 390 387 380 376 372 369 366 366 365 364 362 360 359 356 354 350 345 340 336 331 327 321 314 310 307 303 300 297 294 290 287 284 282 280 277 276 275 274 275 270 268 267 268 269 268 267 265 264 261 259 257 258 258 257 258 259 258 258 256 253 250 249 248 249 249 251 255 257 258 259 258 249 242 238 238 240 241 241 243 243 242 243 246 247 249 248 248 248 249 248 245 242 240 240 241 242 242 244 248 243 244 245 247 249 251 251 249
462 464 469 477 484 489 495 497 495 490 486 484 485 484 482 483 485 488 490 491 491 490 489 488 486 485 486 488 492 495 496 494 494 495 497 498 499 500 501 501 503 504 504 505 507 508 511 513 514 515 514 512 508 505 503 500 501 496 493 488 485 483 481 479 477 475 474 472 469 466 463 461 461 462 465 461 459 455 450 447 445 443 442 440 444 452 463 470 479 490 501 506 512 522 533 545 552 554 557 561 564 569 572 572 573 575 574 580 577 576 570 575 576 579 581 582 583 577 572 563 554 545 536 531 521 517 512 506 500 494 487 479 474 470 469 468 468 469 472 476 480 483 484 486 487 489 495 503 510 521 534 553 559 565 569 572 577 585 590 592 592 594 596 601 601 603 608 613 618 624 629 634 638 642 644 648 647 644 640 635 631 628 625 623 622 615 612 611 610 609 611 608 606 607 607 605 599 593 588 581 578 576 575 575 574 570 565 560 555 550 545 541 540 537 535 535 536 531 519 516 509 504 495 488 475 465 457 447 443 442 445 449 451 451 454 453 456 461 469 482 501 513 521 526 532 533 531 525 523 522 522 522 524 529 533 541 546 550 561 572 582 592 598 601 600 595 590 586 583 578 574 568 563 558 557 555 559 564 566 568 573 579 581 583 585 588 592 594 598 600 601 600 597 595 592 588 584 577 573 564 559 555 551 547 542 539 534 527 522 519 515 509 505 497 487 475 461 452 445 440 431 422 418 414 412 412 412 416 422 427 432 435 439 443 448 452 455 458 459 462 465 467 472 474 473 475 480 480 482 483 485 488 489 494 501 500 495 489 485 482 479 476 473 468 464 460 458 456 453 450 447 445 444 444 444 441 435 430 426 424 423 423 423 421 418 417 416 415 416 417 418 419 420 421 421 418 417 416 414 408 401 398 394 390 386 385 385 390 396 391 392 392 393 391 385 376 370 366 363 362 360 357 355 355 356 355 353 348 344 341 340 340 339 338 337 336 333 332 331 330 330 331 331 330 329 328 326 325 324 323 322 321 321 321 322 323 323 323 323 323 323 324 324 324 322 324 325 325 325 324 321 318 317 317 317 317 314 309 305 301 300 301 302 302 295 290 291 289 288 288 288 290 290 287 283 279 276 275 276 276 274 273 272 270 270 272 273 273 275 276 277 277 276 276 276 274 274 273 270 267 266 263 259 260 262 263 264 265 265 265 268 267 269 270 268 267 266 267 268 266 262 260 264 268 272 278 280 280 280 279 276 276 278 279 279 280 282 285 287 284 277 277 276 277 276 275 281 281 271 271 271 271 273 276 279 280 280 281 281 283 283 279 278 273 281 278 280 281 284 285 285 271 278 267 266 264 261 257 251 249 249 251 251 249 248 249 252 256 261 269 279 291 300 308 314 316 322 327 331 330 328 323 320 320 324 331 339 347 354 358 363 368 371 374 377 382 386 386 384 381 379 373 367 363 358 356 356 356 356 352 350 351 350 346 341 337 336 331 323 321 316 309 310 309 307 301 297 292 288 285 284 281 277 276 274 275 276 269 266 265 265 264 263 263 260 259 256 255 256 256 257 259 261 260 258 257 252 249 246 247 249 251 252 255 259 258 256 255 250 247 243 242 243 243 243 244 246 247 246 244 245 248 250 251 254 254 253 252 249 244 241 238 237 237 241 238 241 235 239 242 246 249 252 253 253
457 460 463 470 479 480 482 484 482 481 481 481 481 481 481 481 481 482 484 484 484 484 483 483 483 484 486 485 486 489 489 489 490 490 491 493 492 493 493 495 498 501 503 503 503 504 506 509 513 513 511 507 503 501 499 499 497 495 491 489 488 488 489 488 487 486 485 483 481 478 474 477 472 472 474 473 468 460 453 446 440 439 443 445 450 457 471 478 488 499 503 509 515 526 529 540 545 547 549 551 556 564 570 575 581 585 590 585 583 587 588 586 587 588 588 586 583 577 568 558 551 552 542 534 523 518 515 513 507 500 492 485 481 476 472 472 475 478 484 488 488 488 487 489 497 492 495 501 504 516 531 532 539 546 552 557 563 568 573 578 582 586 589 592 595 601 603 607 617 619 627 633 638 643 646 648 652 651 649 642 641 634 634 637 635 627 624 620 618 618 617 614 615 613 610 605 602 593 586 581 579 577 576 573 570 563 557 555 552 548 542 536 532 530 527 528 529 525 522 515 510 508 501 492 483 471 459 452 448 445 445 449 450 453 457 459 463 475 485 495 509 523 530 533 536 540 540 534 532 531 530 530 532 533 541 548 553 559 566 573 582 595 601 605 602 601 600 597 592 585 578 574 572 572 574 575 579 581 585 587 590 592 593 593 596 596 595 599 604 608 609 607 603 599 596 591 587 580 574 564 560 556 552 548 544 539 535 531 526 522 518 513 508 501 493 483 465 452 441 437 429 423 417 413 412 412 412 415 422 429 436 442 448 454 458 462 467 472 471 475 478 482 486 487 489 488 490 493 499 498 499 505 502 504 511 511 507 501 494 490 489 486 482 477 472 470 469 469 469 467 463 459 455 454 452 450 447 445 437 432 431 431 430 429 428 424 422 421 420 421 423 423 424 424 424 422 421 420 418 415 409 404 402 396 393 391 391 394 395 395 396 397 399 398 396 390 384 379 376 375 373 369 366 364 360 358 356 353 350 347 346 345 346 346 346 345 342 339 338 338 334 332 332 332 333 333 332 330 329 329 329 330 331 330 330 331 329 327 326 328 330 332 334 334 332 333 329 328 327 325 322 320 318 317 318 315 311 308 306 305 307 309 310 306 301 297 292 289 289 290 291 291 291 291 286 280 278 277 277 278 277 276 275 273 273 273 273 272 272 273 272 273 274 275 277 275 274 272 270 268 267 266 266 267 267 268 267 270 269 273 267 270 266 269 267 267 267 267 266 269 265 258 258 263 272 280 283 283 283 282 280 278 278 277 278 279 282 285 285 283 279 274 276 276 276 274 272 273 274 272 272 273 274 277 281 283 281 279 280 281 279 277 280 277 275 269 271 275 276 281 285 279 272 269 266 263 258 255 251 248 248 248 249 249 247 249 252 256 261 266 272 277 284 292 305 316 320 323 327 327 323 317 315 315 320 330 339 345 349 354 357 363 371 373 375 374 376 379 378 375 369 363 358 354 352 350 350 351 352 350 348 346 344 340 336 333 336 326 320 317 316 310 310 310 309 305 300 292 286 285 285 283 279 272 270 275 269 266 264 263 262 261 260 258 255 253 251 250 251 250 251 255 255 256 258 256 251 250 250 251 252 254 255 258 259 259 255 253 252 250 248 246 245 245 245 245 247 249 250 247 245 248 254 257 258 256 254 251 248 243 241 239 235 239 241 241 239 239 235 239 240 243 248 250 252
452 453 456 459 464 472 472 475 477 479 480 480 479 477 475 474 474 475 478 480 481 482 482 480 480 480 480 478 477 476 478 481 483 485 486 488 488 489 488 488 491 494 497 498 499 502 505 506 507 509 510 507 505 504 503 504 503 498 496 494 495 496 496 495 494 494 492 491 493 490 486 485 484 484 484 478 473 465 454 447 441 439 440 444 453 464 478 482 490 495 504 507 510 517 519 524 527 533 536 538 546 554 563 574 585 591 599 604 603 600 599 597 594 586 586 579 575 566 561 556 554 547 541 534 524 519 517 512 508 503 496 490 487 484 481 481 484 489 493 495 495 493 495 501 507 507 511 508 514 523 529 528 535 537 543 546 550 556 561 569 576 581 586 593 599 604 608 610 617 625 633 639 643 645 646 650 655 653 653 652 658 656 655 651 647 639 634 630 626 626 625 621 621 618 614 612 608 596 589 584 582 579 576 571 565 558 554 551 549 545 538 532 527 525 524 522 521 519 517 513 511 508 505 497 488 478 467 460 454 450 449 452 452 455 459 471 476 486 495 505 518 533 540 545 547 550 546 543 541 540 539 540 541 544 546 552 557 564 571 579 586 596 604 609 609 608 606 603 597 591 585 580 579 580 583 588 591 594 596 598 599 601 601 603 605 605 605 606 608 613 614 611 606 604 599 596 588 579 578 575 567 560 551 545 540 536 530 525 523 520 518 513 509 504 497 487 473 454 439 430 430 421 417 414 411 412 416 420 428 436 444 452 457 463 469 473 478 482 485 490 494 499 503 508 505 507 509 514 518 521 523 529 533 526 527 524 522 513 503 500 495 492 489 486 483 482 483 483 483 480 475 468 465 463 459 458 456 450 451 447 444 441 436 434 432 430 428 428 428 428 429 432 432 430 430 429 426 422 419 416 412 408 403 400 398 398 401 403 397 397 397 397 400 401 400 397 393 388 382 379 375 372 371 369 366 363 360 358 357 356 356 354 353 352 351 351 350 349 347 344 340 337 336 337 338 340 340 340 339 339 339 338 339 340 335 333 332 332 332 335 337 338 338 342 339 333 331 330 328 327 326 323 320 317 316 314 311 309 308 310 314 314 314 311 305 302 300 298 298 294 293 294 295 293 289 286 284 283 283 284 284 283 281 280 277 276 275 274 273 273 273 273 273 275 277 278 271 268 270 271 272 270 269 271 270 270 269 268 270 269 270 270 272 273 271 271 271 270 267 269 266 264 264 266 277 284 285 286 287 285 282 276 274 273 275 277 280 282 283 281 281 276 275 271 277 280 278 280 274 273 273 275 276 280 281 283 281 281 284 284 282 278 277 279 274 274 277 276 277 278 276 271 270 266 263 262 260 258 257 255 256 254 252 246 246 248 250 254 258 262 265 268 274 282 293 305 314 319 320 318 315 311 307 309 316 326 331 334 337 342 349 356 362 368 370 367 367 367 365 362 357 355 352 349 346 344 344 345 346 347 347 345 338 335 333 331 330 328 323 317 315 314 314 315 314 309 302 295 291 290 289 286 277 269 266 266 260 259 257 258 258 258 258 256 253 250 248 247 249 251 249 250 252 253 252 249 248 250 256 258 257 258 260 260 260 261 256 251 248 249 249 249 249 248 247 247 248 248 249 247 245 249 254 257 258 258 253 248 242 241 244 240 234 240 245 250 243 239 238 237 241 241 248 252 252
444 445 442 441 446 454 460 464 470 473 474 475 473 471 471 472 472 472 474 476 477 475 474 473 472 475 476 475 473 473 475 477 481 484 484 485 486 487 487 488 489 492 495 495 494 496 500 506 508 511 514 514 512 510 511 510 509 510 507 507 507 506 505 506 503 501 501 496 501 497 493 491 488 483 480 477 473 469 462 453 446 442 442 446 453 463 474 478 483 488 497 501 506 513 516 520 524 528 529 536 545 554 567 578 587 594 600 605 606 606 604 596 591 589 582 579 577 570 566 566 559 551 544 541 530 523 519 516 509 504 499 494 493 492 489 489 489 491 495 498 502 508 516 521 521 529 526 531 532 530 532 532 536 541 544 548 552 557 562 569 575 581 586 597 601 607 613 614 618 624 631 638 643 649 657 663 668 670 669 668 667 667 667 665 659 652 645 642 639 634 631 628 627 623 618 615 607 600 594 590 587 583 580 571 566 560 556 551 546 539 535 529 524 519 516 515 511 510 509 507 505 503 502 499 491 484 475 469 465 459 458 460 461 463 468 476 484 486 497 510 527 539 549 554 550 550 547 547 547 547 550 549 551 555 560 564 569 577 582 585 591 598 608 613 613 612 611 611 608 602 596 594 591 593 597 602 604 605 605 604 605 606 605 607 610 613 615 616 614 613 613 611 608 606 599 601 591 585 586 583 577 567 561 551 541 529 518 514 511 514 513 508 506 502 498 489 479 464 443 440 429 423 416 413 412 417 423 428 434 443 453 460 468 473 479 484 490 495 499 504 508 511 514 522 521 523 531 533 535 536 537 540 543 544 545 539 532 520 510 506 502 500 495 491 489 488 485 488 493 489 483 478 474 472 470 464 462 458 455 454 451 450 449 446 442 441 441 444 441 441 440 440 441 445 444 440 436 431 425 422 418 414 413 410 407 407 409 402 402 403 405 405 406 407 407 405 402 399 393 389 383 378 376 373 370 369 368 366 364 362 361 359 357 357 358 357 356 355 354 352 348 346 346 344 344 345 347 346 344 344 343 342 342 342 342 343 343 341 340 340 340 340 340 339 338 334 332 329 327 325 324 323 322 318 316 313 313 313 313 315 317 316 314 311 308 308 308 305 301 298 295 294 294 292 290 290 290 291 292 291 291 288 285 284 283 283 281 279 278 279 280 281 280 280 278 275 272 271 271 271 273 273 275 276 275 275 274 272 270 271 276 277 277 276 277 277 275 273 268 266 269 266 269 274 279 281 281 281 280 280 278 275 276 280 280 279 280 279 277 275 278 281 279 272 274 281 277 275 275 275 273 273 276 280 287 288 286 286 288 288 285 281 279 276 276 276 271 272 272 274 274 274 268 264 264 267 265 264 266 261 256 254 252 245 245 246 249 252 254 257 259 261 263 268 277 289 299 304 305 305 306 304 303 306 311 319 325 328 330 332 336 344 350 355 363 365 364 361 357 353 353 353 349 345 342 342 342 342 339 337 334 331 326 324 324 326 329 330 327 322 320 317 317 318 317 312 303 297 293 290 289 286 279 270 265 260 257 255 254 254 254 254 254 252 251 249 249 251 254 253 252 252 251 250 248 247 251 254 257 259 260 262 261 258 248 248 244 242 242 242 245 248 251 251 250 246 243 243 244 246 247 248 251 252 252 252 249 245 243 241 241 239 239 241 247 251 246 238 241 241 245 248 249 252 257
433 428 427 428 432 436 441 449 458 462 464 466 465 466 468 469 469 470 471 469 467 465 464 466 468 472 476 478 478 478 478 480 482 484 486 487 489 491 493 495 495 496 498 496 496 497 501 505 509 513 517 520 521 520 519 517 515 515 516 516 515 513 508 503 501 499 496 495 494 491 486 483 480 477 478 478 477 473 469 462 454 451 452 455 461 466 471 478 480 486 492 496 500 510 517 521 527 531 533 537 547 557 567 577 584 587 589 593 598 602 600 599 596 588 587 587 586 584 581 576 569 562 553 545 537 527 522 517 514 509 504 502 501 498 496 494 494 496 499 505 512 519 527 534 539 541 543 546 549 548 550 547 547 548 552 555 560 564 569 574 579 587 590 595 600 606 610 612 621 627 633 638 643 648 656 664 672 677 682 682 680 677 673 670 666 660 652 646 644 642 638 630 628 626 621 617 610 603 598 594 590 585 579 573 570 565 562 556 549 542 537 533 526 520 514 510 507 505 501 498 497 497 497 493 486 482 475 467 464 461 460 461 463 467 472 477 482 491 500 516 527 538 543 553 550 548 547 548 552 554 555 557 561 565 569 573 579 584 587 587 592 599 609 613 613 613 613 615 613 610 607 603 602 604 608 612 614 614 613 613 613 617 619 621 623 623 624 623 624 623 620 618 614 609 603 596 591 588 588 582 578 571 564 554 544 533 515 510 507 511 509 508 506 502 497 487 478 464 452 440 433 423 415 413 414 420 427 433 438 445 452 456 462 470 476 482 489 495 503 512 519 523 526 530 535 540 545 549 551 553 553 555 557 555 554 553 544 535 528 523 516 510 507 504 500 499 495 495 499 498 497 494 489 486 485 479 476 472 467 464 462 463 465 465 462 460 459 458 458 458 455 459 455 451 449 447 448 444 435 429 426 424 421 419 418 414 413 413 410 410 412 415 416 417 415 414 410 406 401 395 385 379 377 376 375 374 371 369 368 367 365 364 362 361 363 362 361 361 360 359 357 355 353 352 351 350 351 351 351 349 348 344 343 342 343 345 345 344 345 344 342 340 341 339 339 338 337 333 330 328 326 322 320 318 317 317 318 318 318 317 317 317 318 315 313 312 308 304 301 299 296 296 295 294 294 295 295 295 295 294 292 290 289 289 288 287 288 287 286 286 287 289 290 289 287 279 273 271 271 271 272 272 273 274 273 273 274 274 273 273 273 276 277 279 280 280 281 281 278 277 275 275 277 280 283 283 282 278 276 276 278 277 278 281 281 282 281 281 280 281 284 284 284 283 276 278 281 279 277 277 278 278 282 283 288 290 292 295 294 292 289 285 282 278 277 276 279 281 279 279 280 273 267 264 265 267 267 268 269 265 260 260 254 247 244 246 248 251 253 254 254 255 256 262 269 278 283 288 293 295 297 298 300 304 309 313 317 321 325 329 334 338 342 348 354 356 354 350 350 348 346 344 339 332 327 328 332 333 333 331 330 326 322 321 319 321 324 327 330 329 325 320 316 315 312 307 299 292 289 288 285 279 272 266 257 251 249 248 249 250 251 252 252 251 250 249 248 248 248 248 249 249 248 246 246 250 256 256 255 257 257 257 254 251 248 246 245 242 242 244 247 248 249 248 248 249 248 247 247 248 249 250 250 250 247 246 245 244 242 241 241 240 235 237 251 253 246 242 248 252 255 258 261 262 264
436 433 430 429 425 430 432 437 442 450 457 460 461 461 463 464 464 466 467 466 466 465 465 468 470 476 481 483 483 485 486 487 486 487 487 490 494 497 500 502 501 502 504 503 503 502 503 507 511 516 519 522 524 525 525 522 520 519 518 517 515 512 506 502 498 496 492 490 490 485 483 481 480 480 482 483 483 480 473 467 459 454 458 463 469 474 480 484 487 495 497 500 502 510 516 523 528 532 534 539 546 553 563 568 576 581 583 587 595 603 605 607 607 607 603 600 598 596 594 587 579 569 560 552 544 536 528 521 516 512 506 502 501 501 498 495 496 498 501 510 518 527 536 544 551 556 557 557 558 558 560 561 556 557 561 568 573 576 576 579 584 594 599 604 605 607 609 614 622 632 638 643 648 653 662 668 673 678 682 686 685 683 681 678 673 668 662 651 647 644 640 637 629 623 619 614 610 606 600 595 590 584 580 577 573 569 565 559 553 548 544 539 534 527 522 516 510 503 499 496 494 491 489 486 483 479 475 469 462 458 457 458 462 469 473 477 484 498 506 516 528 533 537 538 538 540 544 548 552 557 560 565 570 573 577 578 582 585 587 590 597 605 615 618 618 618 619 619 619 619 616 616 615 614 615 616 618 620 621 622 623 630 634 635 636 634 631 633 631 627 624 620 615 610 604 600 594 588 587 585 580 573 566 554 544 536 525 514 509 505 504 503 501 493 484 476 472 463 455 445 435 425 421 415 416 422 428 432 437 440 444 445 448 454 464 471 478 485 495 508 517 522 527 530 534 540 544 545 558 553 557 560 564 572 569 564 555 552 547 543 535 530 526 522 521 525 520 517 515 515 510 507 504 501 495 489 489 489 490 486 479 477 480 482 479 478 479 476 469 464 461 460 460 459 458 455 451 452 451 443 438 436 429 426 424 423 420 418 418 416 416 419 422 423 421 418 412 406 400 393 388 386 385 383 382 380 375 373 372 371 370 370 369 368 369 370 369 369 367 365 363 362 360 359 356 355 356 357 356 353 352 349 349 349 349 351 352 351 351 349 347 345 342 341 338 337 336 335 334 332 330 328 324 322 321 322 322 322 323 323 322 317 321 318 315 314 312 310 308 306 304 302 300 298 297 298 301 302 300 295 293 290 290 291 291 290 290 290 289 289 291 295 297 296 295 289 281 275 271 270 271 271 272 272 272 274 274 273 274 273 274 276 278 280 282 282 283 284 284 283 282 282 282 282 282 281 279 276 276 278 280 282 284 286 284 284 283 284 288 286 284 283 283 280 280 280 281 281 279 280 282 282 282 281 285 288 292 294 294 293 292 289 286 284 282 281 281 279 278 279 275 270 270 270 269 267 268 269 269 266 265 265 263 255 253 252 248 251 253 253 252 252 255 259 264 270 274 279 281 286 289 291 293 296 302 306 311 316 319 322 324 326 329 335 339 342 343 340 338 336 334 330 326 322 321 322 327 327 325 324 324 324 322 318 315 315 315 314 318 321 322 320 315 310 310 306 297 289 283 280 273 266 267 258 253 248 247 246 246 247 249 250 250 249 250 249 247 246 245 247 248 247 247 247 248 250 252 254 253 252 249 247 248 249 247 245 244 242 242 246 247 245 243 243 243 243 242 244 246 248 248 246 245 245 243 243 241 238 237 239 239 240 239 241 243 246 246 250 244 254 257 263 269 270 274
447 447 446 441 438 437 436 436 442 449 455 459 462 464 467 468 468 467 467 468 468 468 469 471 475 481 487 490 492 495 498 498 498 497 497 499 503 506 508 510 509 510 512 513 512 512 512 514 518 522 524 526 528 530 529 528 527 527 526 523 517 513 510 507 504 501 496 492 490 489 485 483 481 483 486 489 488 484 481 475 469 465 465 468 471 476 483 493 500 502 503 506 506 507 513 520 527 533 538 543 547 552 560 570 578 582 587 596 605 612 616 618 619 616 613 609 607 603 599 591 582 572 562 554 546 540 531 523 516 513 507 501 498 496 495 496 498 500 507 517 526 538 548 555 558 562 565 567 569 571 572 571 572 572 575 579 585 589 589 590 594 600 611 616 617 613 616 623 632 640 645 651 661 664 669 673 676 679 683 686 688 689 688 685 682 677 669 661 654 649 644 641 633 628 623 618 615 611 605 599 595 589 584 581 575 569 565 560 556 552 549 544 540 535 529 524 519 512 506 501 497 494 490 486 482 478 475 470 466 461 458 458 461 465 469 476 485 493 506 515 521 524 528 529 532 538 546 553 559 565 569 576 582 583 587 592 596 599 602 607 613 618 623 627 628 634 630 630 630 628 627 629 629 628 627 628 629 629 630 630 633 640 645 648 652 652 649 646 643 636 628 621 619 614 608 596 594 593 592 590 588 583 574 562 550 538 528 520 513 506 501 497 493 487 481 474 463 454 446 439 439 436 427 419 419 420 422 426 430 433 438 441 446 451 458 462 466 473 483 493 504 512 516 521 527 530 533 537 543 551 556 561 570 576 581 577 572 567 561 556 553 549 543 537 534 534 535 535 533 527 525 523 522 519 511 507 507 507 509 507 503 498 499 501 498 496 490 485 484 479 474 471 470 469 469 464 458 452 453 447 442 441 438 435 432 430 426 426 425 425 422 421 422 421 419 416 411 406 401 395 393 392 393 390 387 383 380 379 380 380 379 377 376 376 377 378 378 377 374 371 371 370 370 368 366 365 362 361 359 356 355 354 355 356 356 356 355 355 354 353 353 352 351 349 346 343 341 339 336 334 333 332 330 328 326 325 325 324 326 328 329 330 328 325 324 320 317 317 317 315 314 312 309 304 299 296 295 298 296 294 290 292 294 297 297 295 294 293 291 294 298 303 303 302 300 291 290 284 281 280 279 277 276 274 274 276 277 277 276 275 279 281 282 282 283 283 283 284 285 284 284 284 286 287 287 287 285 284 284 285 285 285 285 286 287 286 285 285 284 289 289 283 282 279 282 279 276 277 278 281 284 283 282 281 283 288 289 292 293 291 289 281 285 284 282 281 281 283 285 278 279 274 271 267 266 267 268 268 268 266 267 266 265 263 261 257 253 251 252 254 255 255 258 262 264 266 270 274 278 284 287 290 292 294 296 298 303 310 313 316 319 323 326 329 333 334 332 330 329 327 324 321 319 321 325 325 322 319 316 315 315 315 314 312 310 309 307 303 302 304 308 311 312 309 307 303 294 287 280 274 268 263 263 258 254 249 244 243 244 245 246 246 247 247 248 245 244 244 244 245 247 246 246 249 253 255 254 253 251 247 242 243 245 247 243 241 243 246 246 246 248 248 243 241 241 241 242 243 246 249 244 247 247 244 241 241 240 239 238 238 240 241 241 238 241 236 237 242 251 256 258 266 271 276 271
452 452 454 457 456 451 448 448 451 464 460 469 471 470 473 474 475 476 477 478 480 483 483 481 483 487 493 496 499 504 506 508 508 508 508 510 513 513 514 514 516 517 518 517 516 516 517 521 526 529 532 532 533 533 532 532 533 534 534 532 528 525 520 517 514 511 507 502 497 494 493 486 481 478 479 482 480 478 478 477 477 474 469 471 476 484 491 503 509 510 508 503 502 503 507 516 531 537 542 546 549 555 564 574 581 590 595 607 616 621 621 622 621 620 619 616 611 603 595 583 575 568 559 553 549 541 530 524 516 508 501 495 494 494 495 496 499 503 509 515 527 540 553 561 565 567 571 575 579 582 584 584 587 589 590 595 596 598 598 601 605 611 621 623 624 627 633 640 645 650 656 662 672 673 674 675 679 683 688 690 692 692 693 692 689 684 676 669 662 655 649 643 640 629 624 618 613 608 603 599 597 594 590 585 579 573 567 563 558 553 548 544 541 538 535 531 525 520 512 506 500 496 491 487 483 479 476 471 467 465 463 463 464 466 468 472 480 487 499 505 511 516 520 523 529 538 547 554 564 576 581 591 598 597 601 606 611 615 620 627 632 635 637 640 643 644 644 645 646 643 641 639 640 641 641 642 643 643 644 645 648 653 658 661 663 665 664 660 651 640 632 623 622 619 610 604 599 598 597 595 593 588 578 563 548 537 527 518 507 500 496 494 492 486 477 467 457 447 441 439 434 429 425 424 423 422 423 426 427 432 438 446 452 457 460 462 464 467 472 478 486 496 501 507 511 515 521 526 529 533 540 548 563 571 578 583 583 581 580 571 566 561 556 551 548 546 548 546 545 545 545 545 542 539 535 531 534 520 518 516 517 514 513 513 509 507 509 508 502 494 489 486 483 481 478 472 466 461 458 458 453 449 445 444 443 439 435 434 432 431 430 429 428 423 421 418 416 411 404 400 400 400 400 396 393 390 388 387 388 388 387 385 385 384 384 383 382 382 381 380 379 377 379 378 374 371 369 367 365 363 362 363 362 364 364 363 361 358 357 358 358 359 357 355 352 347 345 345 343 340 338 336 334 332 331 331 331 327 328 329 329 328 328 328 328 326 323 321 318 318 316 313 310 308 304 298 296 296 296 295 292 293 294 296 296 297 297 298 302 302 303 308 304 301 294 289 286 286 288 290 292 293 291 287 286 284 281 280 282 280 279 279 279 279 279 279 279 280 283 284 287 287 287 288 288 288 288 288 287 286 286 287 287 287 288 286 284 282 283 283 283 281 282 281 280 275 276 278 281 283 285 284 281 281 282 285 287 290 290 288 285 282 282 280 279 278 280 279 278 276 276 276 272 265 262 263 262 263 264 264 265 265 264 263 262 261 257 253 250 250 253 255 257 260 263 264 268 272 274 279 285 289 292 293 292 294 298 305 310 312 315 321 325 326 326 324 321 319 320 321 319 318 316 317 319 318 315 312 309 309 311 314 314 308 303 301 301 299 299 298 298 300 300 302 304 300 293 286 279 272 266 259 257 253 252 250 248 247 245 244 245 245 246 247 248 246 244 243 242 243 244 245 248 252 254 254 253 249 246 244 244 246 247 248 245 243 244 246 247 248 251 249 246 243 240 240 241 245 250 251 251 248 244 241 240 240 239 238 236 237 239 242 240 236 235 235 237 239 247 257 271 266 278 276 267
467 468 470 473 472 469 463 461 458 471 474 477 480 479 482 490 491 491 492 493 495 497 497 494 492 493 497 501 503 507 509 510 511 514 516 518 521 522 524 526 526 526 526 522 519 518 519 523 530 535 537 538 537 537 536 537 537 537 538 537 534 530 526 523 521 518 516 514 511 508 504 494 486 477 477 476 474 474 475 476 476 476 477 479 480 487 497 504 513 513 511 510 508 508 511 519 526 533 539 548 551 557 565 574 583 594 604 615 622 623 625 623 621 619 615 609 610 594 586 577 570 564 555 548 543 538 532 526 513 505 501 496 494 495 497 498 500 505 510 515 526 539 554 568 570 577 583 585 587 588 591 593 595 598 599 602 605 604 608 616 621 625 627 630 636 640 647 656 662 665 670 677 680 681 681 680 680 684 690 693 694 695 695 693 689 685 680 676 673 667 656 651 644 632 624 617 610 606 602 599 596 595 590 585 573 568 564 562 559 557 552 547 546 541 536 530 526 521 510 503 496 490 485 479 473 471 469 468 468 468 469 471 472 473 474 477 481 487 493 498 502 506 510 517 527 537 544 552 561 575 589 601 602 607 616 620 623 627 631 636 638 642 646 651 653 657 656 655 655 653 650 648 648 647 648 649 652 653 654 656 659 665 668 670 671 671 671 667 658 646 635 630 625 620 615 611 609 602 599 595 587 584 570 553 540 533 528 525 512 501 495 491 488 479 474 462 455 447 443 440 437 434 431 431 428 426 427 430 438 444 450 457 459 464 471 472 473 472 472 473 475 479 485 489 494 498 503 509 517 524 531 542 553 562 567 575 582 584 581 575 571 570 569 568 566 562 560 555 556 555 555 555 555 553 551 551 547 542 530 526 527 526 523 519 516 519 526 524 516 508 504 501 497 493 488 482 477 472 466 466 459 457 453 450 448 446 443 442 441 441 440 438 435 433 430 426 423 421 414 412 410 409 407 405 400 398 397 395 394 395 395 396 395 394 393 392 391 390 390 391 392 392 393 391 388 384 379 375 369 368 370 372 373 373 373 372 371 372 371 368 366 365 366 360 356 353 351 350 349 345 342 338 337 336 335 333 333 331 332 330 331 333 333 331 330 329 327 325 323 320 317 315 313 312 307 302 299 299 300 299 299 302 302 300 300 299 300 303 308 311 312 309 304 299 297 296 295 294 295 297 299 299 298 295 293 291 289 285 283 280 279 281 280 278 276 276 277 279 280 281 283 284 285 286 288 289 290 291 292 290 289 287 287 289 289 287 284 284 286 286 286 284 280 277 278 279 279 280 281 283 283 283 285 288 290 288 289 293 292 289 285 283 283 281 280 278 277 272 281 276 281 274 268 264 262 261 261 262 263 263 262 262 264 264 263 262 259 252 249 248 250 253 255 259 263 265 266 266 264 268 277 284 289 291 292 294 299 304 309 312 315 317 320 320 320 319 317 317 317 318 319 316 313 312 310 310 308 306 304 303 305 305 299 294 293 295 298 300 300 297 293 291 289 290 286 285 283 278 270 264 262 258 253 251 251 251 250 251 251 252 251 248 248 248 245 244 243 241 241 242 241 243 247 251 255 252 250 247 246 245 247 250 252 249 246 244 245 247 247 247 247 246 245 242 240 238 236 239 244 246 246 244 240 238 240 240 240 240 238 238 239 242 242 240 238 240 242 244 252 258 267 275 273 272 269
481 484 492 488 485 483 482 479 477 489 492 493 494 493 494 496 496 497 500 500 501 503 505 505 502 502 503 506 509 512 514 516 516 517 521 524 527 530 533 534 533 532 530 526 524 523 523 527 531 537 542 543 544 544 543 541 540 538 537 536 534 530 527 524 522 522 521 515 513 512 510 505 496 489 483 478 476 477 480 483 483 482 481 482 481 485 494 501 509 517 520 519 518 518 519 522 526 533 539 543 546 551 562 571 581 590 598 608 613 617 618 619 619 616 610 607 602 588 578 573 566 560 555 549 543 538 532 525 512 503 495 494 492 496 497 499 503 507 514 522 535 546 561 573 574 580 586 589 592 595 597 599 602 606 609 612 612 615 617 621 627 630 632 633 635 645 653 665 670 674 675 678 681 683 684 686 693 696 697 696 695 694 692 689 686 684 681 677 670 665 663 658 647 635 626 619 612 608 604 602 598 590 582 575 567 561 559 559 558 557 552 548 545 541 539 533 526 519 509 504 492 482 475 468 463 462 463 466 469 475 479 480 481 482 483 484 482 486 491 495 497 499 507 517 527 536 544 551 561 574 586 595 606 614 618 624 629 633 638 643 647 652 658 663 668 673 668 663 661 660 657 656 655 654 653 653 655 659 663 668 669 672 673 674 678 676 674 672 661 648 638 634 628 622 619 615 612 608 599 592 587 581 567 549 534 528 523 525 511 504 497 492 485 474 466 459 455 450 446 443 439 439 439 438 434 434 437 443 451 458 464 466 473 476 478 478 479 480 478 477 479 483 487 490 491 493 497 501 506 513 523 535 541 548 557 565 572 577 580 580 579 579 580 580 577 574 573 571 570 567 567 566 565 564 564 562 557 555 554 543 542 544 544 540 537 535 533 530 527 524 521 520 515 511 511 499 494 487 478 473 475 470 463 464 460 456 456 452 454 453 450 445 441 438 436 433 430 429 428 426 424 419 417 412 408 405 403 401 400 399 400 402 403 403 403 402 402 403 405 406 405 402 402 400 398 394 388 386 383 384 386 386 384 382 378 378 379 379 379 379 377 372 371 363 358 356 355 356 353 349 344 341 340 339 337 335 334 334 334 335 335 333 333 332 330 329 328 328 326 321 317 317 315 316 314 313 310 306 304 302 304 307 308 303 298 297 299 303 305 309 311 306 303 301 302 304 300 301 301 296 294 293 295 291 293 294 293 290 289 288 288 289 285 282 282 283 283 283 284 285 286 286 289 292 293 293 294 295 296 297 295 292 290 290 290 290 289 288 289 290 290 288 283 283 284 286 285 286 285 282 281 280 282 285 287 291 293 295 295 294 297 296 292 287 284 280 277 276 272 266 266 271 273 268 263 261 261 261 263 266 267 267 265 264 264 265 263 258 252 250 249 249 251 256 262 267 267 265 263 265 268 273 281 287 292 295 298 304 309 312 314 316 314 312 313 314 314 314 315 317 320 318 315 313 310 307 307 304 298 292 290 289 289 286 285 289 292 294 293 291 288 284 279 277 274 270 266 262 258 254 257 249 248 248 252 255 257 256 255 256 254 249 244 244 244 243 242 241 242 242 243 244 247 250 252 251 246 243 243 243 245 248 248 247 245 243 247 249 251 248 246 245 244 242 241 239 238 239 240 241 241 241 239 238 239 240 241 243 243 242 241 245 247 246 244 244 247 252 255 265 268 271 276 274 266
496 504 504 504 503 500 500 502 506 505 506 507 503 502 501 501 504 504 507 513 513 512 513 512 510 508 508 509 513 518 523 526 527 527 528 530 533 535 537 539 538 537 535 532 531 531 531 532 536 540 544 547 548 550 550 550 549 545 542 541 539 536 533 529 526 525 520 517 514 512 511 508 504 494 487 481 478 481 486 489 489 488 488 489 490 491 496 496 507 517 522 522 522 523 525 527 531 537 540 542 546 551 558 564 574 583 591 599 606 613 616 619 621 623 612 607 592 586 579 575 570 565 560 554 545 536 528 520 510 503 499 497 497 497 500 505 508 511 519 530 543 554 566 572 574 577 582 587 594 599 604 610 615 619 621 621 625 628 628 632 636 640 642 644 649 654 659 665 669 673 676 680 685 690 695 700 706 713 711 708 703 699 695 693 691 690 686 681 674 667 662 657 647 637 629 621 615 610 606 601 596 588 579 571 563 558 554 550 547 545 543 540 539 539 538 536 530 522 514 500 485 486 476 471 466 463 463 467 474 482 487 489 491 492 493 493 496 497 500 504 505 507 511 518 524 532 542 549 563 577 587 596 602 608 611 619 627 637 645 651 656 663 668 669 672 674 677 674 672 671 669 670 670 669 668 669 666 670 675 678 678 679 680 680 683 682 680 675 665 656 639 631 629 625 619 614 608 603 597 591 583 571 551 554 540 526 521 515 510 503 497 492 484 474 463 456 453 449 445 442 441 441 439 439 439 443 449 455 458 469 472 479 485 493 498 497 493 489 486 485 486 489 493 498 499 501 503 508 512 518 523 532 540 548 554 561 569 576 583 590 595 595 594 595 591 587 584 582 580 577 574 574 574 572 570 567 565 562 559 556 554 555 555 555 554 551 545 541 539 538 537 540 541 538 531 526 519 512 497 488 485 489 486 485 482 476 470 466 466 465 460 453 449 445 442 441 439 436 433 432 429 425 421 419 413 407 406 406 406 406 410 412 412 412 411 410 411 411 412 414 412 410 408 406 402 400 397 397 396 397 396 394 392 390 388 388 388 387 387 386 382 377 377 371 365 361 358 355 352 349 347 344 343 342 341 340 341 342 342 342 343 340 337 336 333 331 331 330 329 326 323 321 319 319 319 318 315 311 308 306 308 309 307 304 302 302 302 301 300 299 299 299 298 299 303 302 299 299 298 293 288 291 291 289 294 295 294 291 291 290 292 292 290 288 289 290 290 291 293 294 295 296 297 299 300 300 301 300 301 299 295 292 290 289 289 291 292 293 287 287 289 294 294 292 292 293 292 289 283 280 279 278 280 284 284 287 291 292 294 295 298 295 294 296 289 285 282 281 275 269 273 268 265 262 264 262 262 263 264 264 264 266 266 264 263 261 258 261 259 256 252 246 246 251 262 269 271 268 265 261 261 264 270 279 286 291 295 298 300 303 304 307 307 305 305 306 311 317 323 325 322 318 315 315 314 313 311 305 297 291 289 285 285 285 283 281 280 282 283 281 279 276 274 270 267 261 253 249 247 247 248 250 246 245 247 249 252 252 252 251 247 244 244 245 244 244 243 243 245 247 246 249 252 255 254 251 244 240 240 241 243 245 244 244 244 246 250 250 248 247 246 246 246 245 243 241 240 240 240 239 239 240 241 241 241 241 242 242 242 242 245 251 254 255 252 252 247 259 267 272 273 273 272 269 259
501 508 514 519 525 523 520 521 521 519 524 525 523 519 520 520 521 521 521 523 525 522 521 520 517 513 511 513 516 522 528 534 536 537 535 536 537 539 541 542 543 542 539 536 535 534 535 537 539 541 544 546 549 551 556 560 561 559 555 552 549 547 545 541 536 534 527 523 518 514 512 509 505 496 489 483 483 487 495 504 508 507 506 503 498 495 492 504 509 519 523 527 527 528 528 530 536 542 544 544 548 554 560 563 567 572 578 586 594 602 611 617 620 624 621 613 598 589 583 578 573 566 561 556 548 538 527 518 510 505 504 503 509 509 511 514 516 522 528 540 552 561 565 570 573 576 580 586 595 604 613 620 628 632 634 636 639 645 650 650 651 654 657 662 665 667 667 669 672 677 683 690 697 702 709 715 718 720 717 715 708 702 699 697 697 696 691 684 674 667 661 656 651 641 632 624 619 611 602 596 592 586 578 570 563 558 552 549 546 543 539 536 536 536 535 532 527 520 508 500 485 483 479 475 472 470 472 477 486 492 494 496 500 503 505 507 509 512 511 512 512 513 517 520 529 531 535 544 552 561 572 583 593 601 607 615 630 636 644 653 661 672 678 685 684 682 681 680 682 682 682 681 681 680 682 683 684 685 686 686 687 688 687 687 682 680 679 673 663 651 641 633 628 625 622 618 612 606 599 596 588 572 557 549 540 528 513 511 506 504 499 492 481 474 469 462 454 446 443 441 441 440 440 440 441 445 450 455 468 481 488 497 506 514 514 512 510 507 503 502 501 502 505 509 513 516 519 520 524 528 532 535 538 545 550 555 563 572 582 594 600 602 603 605 609 607 603 597 593 589 588 588 585 584 581 580 578 576 571 565 564 564 565 567 569 568 564 559 555 554 553 550 546 542 541 543 531 528 520 514 509 507 504 503 503 496 495 489 486 484 480 475 468 460 454 451 450 447 444 442 439 436 431 425 421 420 416 415 414 414 416 418 418 416 415 416 418 418 419 422 419 415 412 409 407 407 406 407 407 406 405 402 398 398 397 397 396 395 394 391 387 385 379 372 368 363 357 353 351 351 350 348 348 348 347 347 348 349 348 347 346 347 346 342 339 336 336 335 334 332 328 327 326 324 323 322 318 314 310 309 309 308 309 309 306 304 303 301 298 298 296 295 298 298 300 298 295 296 297 295 291 290 289 290 292 293 291 291 291 295 301 300 300 297 296 297 298 299 301 303 303 303 303 305 305 306 306 306 306 305 301 298 294 293 291 293 294 288 288 290 291 291 290 289 297 297 291 292 284 280 278 277 276 278 280 280 282 283 284 287 291 293 294 292 289 288 284 277 277 274 275 268 263 259 263 262 264 264 263 264 264 263 261 258 265 265 263 262 261 257 251 257 241 246 255 267 269 268 265 263 260 260 263 269 276 281 284 288 292 298 306 303 303 301 301 304 308 316 319 320 317 313 312 314 315 316 313 307 299 293 289 287 286 286 282 278 277 270 269 271 272 270 269 267 265 258 251 247 245 245 247 248 250 249 249 250 250 253 251 246 241 240 241 243 245 246 245 245 247 249 252 259 259 259 255 251 246 243 242 244 244 245 245 247 249 250 251 250 249 248 246 247 248 249 249 249 249 246 243 242 243 242 241 240 240 241 242 245 246 249 256 262 264 262 258 256 259 263 267 271 263 262 266 265 260
505 512 522 528 532 531 529 528 528 528 530 532 533 533 533 535 536 537 537 536 535 535 530 529 526 523 520 522 525 529 534 540 542 543 543 541 542 545 546 547 548 547 545 543 541 539 538 538 540 543 545 547 549 553 557 563 569 570 571 568 562 558 555 552 548 547 540 532 524 517 513 509 505 499 492 489 489 495 505 511 514 514 514 513 510 505 505 510 516 525 532 533 535 536 539 541 543 546 549 552 556 561 565 567 568 570 574 582 590 599 606 613 617 617 615 610 603 595 586 579 571 564 559 551 543 536 529 519 513 510 510 510 511 516 524 526 528 530 534 544 552 559 565 569 571 575 582 590 599 608 619 626 631 635 641 646 653 655 659 662 663 665 668 672 674 675 677 679 683 688 694 701 707 713 718 721 723 726 723 720 717 711 707 704 700 696 692 685 675 667 662 658 654 646 637 628 617 610 604 598 592 587 581 578 570 560 555 551 547 543 539 535 534 533 532 529 523 516 503 497 490 483 478 477 477 477 481 486 495 501 505 509 513 516 518 520 522 525 527 529 526 529 529 530 530 538 542 545 553 561 570 582 593 597 607 612 621 628 637 645 658 672 684 689 691 691 686 682 679 683 685 682 683 685 689 692 692 689 688 686 685 685 684 682 677 673 671 665 656 650 643 636 632 627 622 618 614 608 599 591 585 575 565 555 545 533 517 510 505 503 498 488 477 470 468 458 451 443 440 438 439 439 439 440 441 448 453 460 477 508 510 518 524 528 529 525 521 517 512 510 506 507 511 522 528 531 532 534 535 537 539 540 542 544 548 553 560 570 580 586 594 596 600 606 611 614 613 609 605 604 602 601 599 599 597 594 592 594 586 584 578 578 575 574 575 575 575 574 570 567 564 562 558 556 553 549 545 542 536 532 525 521 522 523 519 510 507 503 502 509 507 498 488 479 471 466 461 460 459 458 456 454 450 444 438 433 431 428 424 423 423 423 423 423 424 423 424 423 423 422 420 419 418 416 417 417 415 414 410 406 404 402 402 401 402 402 402 401 397 392 388 388 379 373 371 366 361 356 353 352 352 353 354 355 355 353 354 354 354 354 353 352 350 347 345 342 338 337 337 336 334 331 329 328 328 325 322 320 315 313 314 314 313 311 310 309 307 305 304 303 299 298 299 300 302 301 300 300 300 299 295 291 288 289 290 292 292 294 296 300 302 303 304 303 303 305 306 305 305 305 305 307 308 310 310 311 311 311 307 304 303 300 296 292 291 291 289 291 292 296 293 289 289 291 295 296 297 289 289 284 282 280 278 277 276 274 274 273 274 275 276 280 284 285 286 290 290 281 277 271 265 264 261 266 264 264 266 264 262 262 263 263 260 262 262 262 263 263 260 257 253 253 249 243 253 265 268 268 266 263 262 262 262 263 266 270 276 281 287 295 298 304 297 298 301 306 309 312 313 314 314 312 311 310 311 311 311 308 301 294 292 291 287 282 278 274 269 266 265 268 266 265 266 262 258 252 248 245 244 246 248 248 254 251 250 249 246 248 248 245 241 240 241 242 242 245 246 247 246 252 261 257 255 256 251 247 244 245 247 248 248 246 247 251 254 253 252 250 250 249 250 254 254 251 249 248 249 249 248 248 246 245 242 241 240 240 242 245 247 251 264 271 274 268 264 261 261 261 263 264 264 262 260 262 260
519 526 534 539 542 543 541 536 538 539 541 543 542 541 543 544 542 542 543 543 542 543 542 541 537 536 535 535 537 539 542 547 550 550 549 549 550 550 551 553 554 553 553 553 553 551 549 547 547 549 549 551 553 558 564 570 576 578 577 575 571 566 562 558 553 546 541 536 528 522 517 513 508 503 496 495 500 507 513 518 524 523 527 523 523 514 513 517 516 520 526 533 539 542 544 546 549 551 556 560 563 566 568 570 570 569 571 576 584 594 604 613 620 617 617 610 606 600 591 580 570 562 553 546 539 532 525 521 518 516 518 523 527 530 535 537 541 542 544 548 558 563 568 571 574 579 588 596 603 613 627 636 638 643 652 654 656 658 662 666 671 675 678 680 683 686 687 691 694 696 700 706 711 715 718 720 723 723 722 718 715 714 710 705 701 696 690 682 674 666 662 662 656 648 635 625 619 616 611 604 598 593 587 582 575 568 563 557 550 543 539 536 534 532 530 526 523 516 507 496 488 486 480 480 479 482 487 492 499 507 511 515 519 522 526 534 537 540 543 543 544 549 550 551 551 544 544 550 556 570 579 591 598 603 608 613 620 629 636 644 657 668 676 682 687 689 689 687 688 687 685 686 688 689 690 689 686 682 679 677 676 676 677 678 675 672 668 662 656 651 645 637 630 625 621 617 613 607 601 591 579 569 560 553 546 536 526 516 511 506 499 486 478 465 458 451 444 440 438 439 439 441 442 444 448 452 459 474 505 518 527 530 535 537 537 533 528 522 515 511 510 513 520 532 537 541 542 539 538 538 541 543 543 544 548 553 562 563 566 577 585 592 596 604 611 617 617 616 614 612 611 610 609 607 604 602 599 596 593 595 590 588 586 584 583 584 586 588 584 578 573 569 566 565 560 557 558 556 552 547 544 538 535 535 535 532 527 522 518 517 516 514 508 503 495 490 483 475 474 474 470 466 458 453 448 449 446 444 441 439 435 433 428 435 436 435 435 434 430 426 423 421 421 422 423 425 427 426 422 415 412 411 408 406 405 405 402 398 396 394 393 388 383 377 373 370 366 362 360 357 357 356 357 358 361 363 362 360 359 358 359 360 359 356 352 348 345 342 341 341 340 339 336 333 331 329 327 324 323 324 322 321 317 311 309 307 308 308 308 305 303 303 303 303 302 304 305 304 303 301 300 298 296 297 298 298 299 301 303 307 306 306 305 306 307 307 309 310 311 310 310 311 312 313 315 315 312 309 306 303 299 297 295 294 289 295 291 294 295 298 295 292 291 296 296 297 299 299 295 293 290 286 283 282 280 276 271 270 272 274 276 279 278 280 285 287 285 280 272 270 271 266 261 261 265 264 266 267 266 263 263 262 260 258 261 262 261 255 255 258 256 248 239 239 245 256 267 269 268 267 265 263 261 259 257 261 269 276 284 293 296 296 297 299 302 304 306 307 309 311 313 315 314 311 308 307 307 305 299 291 290 289 285 280 276 273 271 270 267 265 262 262 263 260 255 249 247 247 246 248 250 252 253 256 250 247 244 243 243 242 241 241 242 242 242 243 245 247 252 257 264 257 253 254 249 247 248 248 249 247 245 244 247 252 253 251 249 247 245 245 250 254 253 249 246 245 246 249 251 252 251 249 246 241 239 242 245 247 251 259 269 271 273 270 256 255 260 257 260 260 262 263 266 261 262
529 532 536 540 546 549 551 553 553 554 556 555 554 555 553 550 550 551 553 554 555 554 552 550 550 551 548 549 549 549 552 555 556 555 554 554 554 555 557 558 560 560 561 562 563 563 561 558 558 558 559 560 561 566 573 572 576 577 574 571 568 566 563 559 551 546 540 534 530 527 523 517 511 507 504 504 508 518 522 528 532 537 536 535 532 527 520 516 514 517 519 531 538 547 553 554 550 551 556 560 564 565 568 569 570 569 571 576 584 592 606 610 611 614 614 612 606 600 596 586 572 562 552 545 541 536 530 525 522 520 521 527 533 540 545 550 556 554 553 556 566 572 575 578 582 586 592 598 605 615 626 635 642 649 656 661 665 669 673 676 680 684 687 691 694 698 699 701 702 701 704 708 711 714 716 718 720 720 718 715 712 708 703 702 698 694 688 681 673 668 663 661 658 648 640 631 626 621 615 609 603 598 592 585 579 574 572 568 562 552 545 538 533 530 527 521 518 509 502 499 492 493 489 487 489 492 495 499 503 509 514 519 525 530 536 541 547 552 554 556 555 555 555 559 561 560 560 564 570 576 591 598 604 606 611 617 622 628 637 647 659 667 675 677 679 683 687 689 692 688 686 682 680 679 678 679 678 676 672 669 668 668 674 673 669 667 665 663 660 655 648 640 631 625 621 618 616 605 594 582 573 569 559 550 541 535 528 519 511 504 496 484 477 469 459 452 447 439 437 439 440 443 446 452 459 470 488 505 520 525 529 533 539 542 542 539 535 530 528 521 522 523 530 537 542 544 546 547 548 550 554 556 554 556 558 565 564 568 572 578 587 592 598 606 613 617 618 618 616 614 612 612 611 609 607 605 602 599 597 594 594 593 592 591 592 593 595 595 594 589 587 579 576 575 571 568 570 563 558 556 554 553 551 550 548 543 539 533 529 528 527 525 522 519 513 503 497 492 493 492 497 485 479 470 464 466 465 466 462 464 462 461 461 460 453 450 449 446 441 436 432 429 428 428 431 432 433 433 431 428 426 420 415 412 410 408 405 400 402 398 392 389 384 378 376 374 370 367 367 367 365 362 362 361 363 366 366 367 368 366 366 365 362 358 355 352 350 348 346 344 343 341 338 337 336 334 334 333 333 331 327 324 321 317 314 312 312 313 316 318 318 316 314 311 308 308 309 309 308 309 308 307 305 304 304 305 306 307 308 309 309 309 309 312 314 315 316 318 318 317 316 315 317 318 317 314 309 304 300 299 297 296 294 295 295 296 299 301 295 293 294 291 290 293 299 299 300 298 297 296 294 289 284 281 277 275 273 273 274 273 273 275 274 275 275 276 276 276 275 271 264 262 262 263 262 262 264 265 263 262 262 261 259 258 258 258 257 257 258 258 255 248 240 238 242 252 263 268 269 266 264 262 260 257 254 256 261 270 284 293 296 296 297 299 297 297 299 302 304 308 312 315 316 313 310 308 306 301 295 291 289 286 283 283 278 274 273 271 268 264 261 261 259 257 253 250 250 250 250 250 251 253 252 250 249 246 245 244 240 239 238 238 239 240 240 241 244 249 260 267 259 255 251 249 247 247 247 248 247 243 244 245 246 247 248 248 249 250 249 249 253 254 251 249 249 249 249 251 253 254 254 253 252 247 246 247 250 253 256 265 263 263 261 257 252 256 258 263 264 262 263 266 264 265 265
541 543 545 547 550 553 556 557 558 560 562 563 565 563 561 561 563 565 566 567 568 566 564 558 557 557 561 558 559 561 561 559 558 557 557 558 560 562 564 566 568 571 571 572 572 571 570 569 567 566 567 569 570 572 578 580 576 574 571 570 568 565 561 557 548 543 537 532 530 531 527 524 518 514 511 514 522 528 531 540 544 547 549 546 541 538 526 519 515 515 517 526 541 551 559 561 561 560 560 563 564 565 568 572 573 578 580 583 591 595 603 610 615 618 616 614 609 600 592 585 578 567 554 546 540 536 534 531 528 526 528 535 544 553 558 563 566 570 573 577 581 584 586 591 589 590 592 602 611 618 625 629 636 642 650 656 662 668 673 678 686 692 695 698 701 704 705 706 706 705 707 709 712 713 713 714 712 711 709 708 707 705 702 700 700 696 691 684 677 674 670 664 659 650 643 637 629 621 614 608 603 599 596 590 584 581 579 575 570 561 551 543 536 530 524 519 512 505 499 493 490 489 491 493 496 496 501 507 513 522 529 537 542 547 550 553 557 561 566 569 572 573 573 574 576 576 579 579 581 583 588 594 599 607 613 620 629 639 650 659 667 670 675 678 676 679 681 682 684 679 674 668 667 668 668 669 669 667 663 662 662 662 661 663 660 658 658 657 656 652 646 642 633 628 626 624 616 606 594 585 569 563 553 547 544 538 532 525 515 504 492 480 471 465 454 448 442 440 439 441 445 451 456 464 474 485 497 512 519 525 530 534 536 537 539 541 541 538 538 534 534 537 543 546 551 556 560 562 564 567 572 575 578 576 576 582 584 587 588 588 589 593 600 605 610 612 616 618 619 619 619 619 619 618 616 613 611 610 602 602 603 602 600 600 600 600 600 599 599 602 597 592 589 582 580 581 579 576 571 564 558 559 557 558 557 552 545 538 536 535 535 528 527 524 520 515 510 507 511 513 514 502 495 488 486 483 478 480 480 480 469 466 462 462 465 468 466 462 454 451 444 440 439 438 438 436 436 437 436 436 435 431 427 421 416 411 408 405 401 397 393 389 384 381 379 377 374 373 373 373 372 368 367 367 370 372 374 377 376 374 374 374 372 367 362 359 356 353 351 350 348 344 344 343 342 340 340 339 336 333 332 330 327 322 319 318 317 318 320 320 319 318 317 314 311 311 311 311 311 312 312 313 312 310 310 311 314 314 313 312 312 314 315 316 316 318 320 321 321 321 321 322 322 322 318 311 305 301 299 298 296 295 294 295 295 297 299 295 297 296 294 294 294 292 298 299 300 300 300 299 295 290 283 278 274 274 275 277 279 277 272 269 270 271 273 275 276 272 270 261 260 263 264 264 263 263 262 261 261 260 258 258 259 260 260 260 258 257 257 257 251 248 240 239 244 249 255 260 262 263 263 260 257 254 254 255 259 268 279 287 293 296 298 296 292 292 294 297 300 304 310 313 315 313 311 309 308 304 298 294 290 287 286 284 280 277 274 273 271 265 261 257 256 254 252 250 249 249 251 253 254 254 250 246 243 247 247 247 245 244 241 240 242 244 243 245 250 257 266 271 261 256 249 242 242 242 242 244 243 244 243 244 245 243 242 243 244 246 247 248 252 253 252 251 249 249 249 248 250 251 253 254 255 254 247 246 250 255 266 265 261 256 256 251 257 260 264 267 266 267 260 263 268 268 268
546 548 549 552 555 559 561 562 564 565 565 565 566 566 566 566 566 566 568 570 571 566 566 566 566 566 568 570 569 567 565 562 559 560 561 564 567 569 572 573 574 575 577 578 578 577 575 572 571 572 574 576 578 579 581 581 580 573 570 566 563 559 555 547 541 536 532 530 531 532 531 529 528 526 527 529 535 539 546 550 553 552 553 553 553 548 538 527 521 522 526 536 543 555 566 573 574 574 569 567 566 569 573 578 583 589 592 598 597 600 604 613 618 622 620 617 612 607 597 591 574 566 554 547 539 535 532 531 531 532 538 549 557 564 569 573 579 585 584 587 590 593 596 597 598 599 601 605 611 617 623 630 630 644 646 653 661 668 674 681 690 697 701 703 705 705 705 708 709 709 710 711 711 709 706 704 702 702 701 699 696 692 691 690 689 687 686 683 677 672 665 661 656 649 645 641 637 628 618 609 606 604 603 599 594 590 586 580 573 564 556 547 539 530 522 517 509 499 495 488 486 487 489 495 500 511 514 523 533 544 551 557 561 562 563 566 569 574 578 582 586 587 588 592 595 606 599 602 598 597 598 601 607 615 625 630 635 646 659 668 672 677 674 674 674 672 670 666 668 665 659 657 657 657 655 654 654 654 654 653 652 654 653 653 649 647 646 646 645 642 637 633 631 630 630 625 614 605 593 581 572 568 562 553 550 543 534 524 514 502 492 482 475 462 453 444 440 439 439 444 451 458 464 472 484 498 510 516 524 527 529 533 538 540 541 543 543 542 542 543 544 547 552 557 560 565 571 576 578 576 579 581 583 583 583 585 589 591 592 593 595 598 602 605 608 610 613 618 621 623 625 625 624 623 622 621 621 616 615 615 615 615 613 613 615 613 611 608 606 609 605 601 598 591 590 592 586 580 572 572 572 571 569 571 568 564 563 559 556 553 551 543 539 534 531 529 526 524 523 526 533 518 511 509 517 516 511 500 495 491 489 483 481 476 473 472 477 478 470 466 465 457 454 452 451 448 444 441 438 441 438 437 432 427 420 414 408 404 399 397 395 392 386 383 383 384 384 383 385 387 385 379 375 374 376 380 382 383 383 382 383 382 380 376 371 367 364 360 357 355 354 352 352 350 347 343 341 339 335 334 332 330 327 325 324 324 325 326 327 327 326 324 324 321 319 317 317 317 318 317 316 315 313 313 315 316 317 318 317 318 317 317 319 320 321 323 323 323 323 324 326 327 325 322 315 307 301 298 297 298 298 295 293 291 293 298 300 300 295 294 292 293 293 291 295 296 297 298 299 299 297 291 284 278 273 272 275 278 279 277 276 273 270 268 268 269 273 271 268 262 263 266 266 263 261 260 260 259 258 259 259 260 261 261 260 260 260 259 257 259 250 240 233 230 232 242 248 251 252 252 252 253 255 255 255 257 262 268 275 282 285 287 289 288 288 290 291 294 294 300 307 312 315 317 317 315 312 309 304 297 293 289 288 285 281 275 270 268 265 260 257 254 254 254 255 254 253 252 253 253 254 251 247 246 246 247 250 247 248 249 245 250 248 247 246 249 254 263 271 264 255 250 245 242 242 242 242 242 243 247 241 241 240 240 241 242 241 242 248 252 253 252 250 249 249 248 248 247 247 248 250 253 254 252 250 254 258 263 265 264 256 256 250 254 255 258 261 263 266 262 262 265 266 267 269
552 552 554 558 561 564 566 567 570 571 574 575 575 575 575 571 568 565 561 561 561 563 566 570 573 573 574 573 572 570 568 566 565 565 568 569 572 575 577 578 579 579 580 581 581 581 581 580 579 580 581 585 584 584 584 583 585 581 578 572 565 565 556 543 536 532 529 529 530 534 536 534 536 536 542 548 545 550 555 559 564 566 568 567 563 556 548 540 533 530 531 533 543 556 569 575 577 577 576 572 574 578 584 586 594 598 601 602 606 609 613 617 621 623 623 620 618 608 602 594 581 570 564 554 545 538 533 533 534 536 540 548 556 564 571 577 588 592 594 596 599 602 604 607 606 609 611 616 621 626 630 635 643 646 653 660 665 670 677 685 693 700 703 704 704 704 703 703 704 704 704 704 700 696 695 692 691 691 689 686 679 673 671 667 667 668 670 671 669 663 656 651 649 642 639 636 632 629 623 617 613 610 608 605 601 597 592 586 575 566 560 551 542 530 523 516 509 502 495 491 490 491 495 501 510 514 522 536 547 559 565 569 573 578 579 582 585 590 593 597 603 605 607 614 621 629 623 625 626 630 631 628 627 632 639 648 651 657 666 673 678 678 674 671 667 665 662 658 658 657 656 656 653 652 650 646 644 642 641 639 638 637 638 641 640 635 631 628 628 623 626 620 623 624 625 619 616 603 592 582 574 573 568 563 556 546 536 525 514 503 493 485 475 461 454 448 443 441 442 449 459 469 475 483 493 503 514 522 527 530 533 540 545 547 550 551 550 550 550 551 553 556 560 566 569 575 582 588 591 593 595 597 595 596 600 596 595 595 598 598 600 603 607 609 612 615 619 622 624 626 627 630 632 630 628 632 626 625 623 621 622 621 622 623 625 625 623 620 615 615 609 607 602 599 598 597 598 594 592 589 591 593 589 586 583 581 578 575 572 570 566 563 560 557 553 548 545 543 545 549 545 539 536 531 525 526 523 517 513 504 502 499 496 497 494 491 494 492 487 480 479 477 477 472 464 457 454 445 440 437 437 437 433 426 419 415 412 407 403 401 400 397 394 394 397 400 399 397 395 393 390 387 383 382 385 388 390 391 390 392 392 390 383 378 374 372 369 365 362 359 358 356 354 352 351 348 346 344 337 336 334 331 330 331 332 331 330 331 331 331 330 329 327 327 327 325 323 321 319 318 317 317 317 318 319 320 321 322 322 323 323 321 321 321 323 323 323 323 324 325 326 320 322 317 309 304 302 300 300 301 300 298 298 296 296 296 298 299 300 295 292 291 297 295 297 299 301 304 305 304 300 290 284 280 278 276 278 278 277 275 273 270 267 266 267 267 266 266 265 263 263 264 263 263 263 262 261 259 259 260 261 262 263 263 264 263 263 260 254 254 245 235 226 230 235 241 246 248 249 250 250 251 252 255 255 253 256 261 269 277 283 287 289 290 291 292 294 294 294 297 301 306 311 312 313 314 315 312 304 295 290 287 287 283 278 272 267 263 257 254 251 251 249 248 247 248 251 251 252 252 251 250 249 249 249 250 247 244 244 244 245 246 248 250 251 256 261 270 263 256 249 247 245 244 243 243 242 241 241 243 247 245 243 243 244 244 243 245 246 246 247 246 245 245 246 249 249 249 247 246 247 248 249 256 256 260 259 265 267 272 261 254 253 259 259 261 264 265 268 265 266 267 270 272 273
553 556 561 566 568 570 571 572 574 576 578 580 582 583 581 577 573 568 564 558 558 560 563 569 572 573 573 573 572 572 570 568 568 567 573 576 580 583 584 584 584 584 584 585 584 583 583 585 587 589 587 589 590 591 592 592 594 591 588 583 577 571 561 546 539 538 539 541 542 542 539 535 538 539 546 550 553 557 562 566 571 573 572 571 571 565 558 550 542 536 531 531 537 549 566 576 578 579 581 579 580 582 586 592 598 605 609 611 614 616 619 621 622 623 623 622 616 607 602 597 588 577 569 560 555 547 540 535 535 537 545 554 562 570 578 586 595 600 604 609 614 616 617 619 620 622 624 626 632 640 645 650 652 656 661 669 673 678 685 693 698 702 704 705 703 700 698 696 695 692 689 689 687 686 686 685 682 680 677 673 668 663 661 658 657 657 658 659 654 647 641 637 637 634 632 630 628 625 622 619 616 614 612 610 605 599 594 589 581 573 567 558 544 531 523 515 516 506 501 499 498 501 501 510 519 526 534 545 554 561 568 575 582 588 594 597 603 607 610 615 619 622 631 631 634 639 635 643 644 646 643 646 648 651 657 660 663 666 670 674 676 676 672 670 665 662 659 656 655 655 653 652 651 651 644 638 634 634 632 631 630 630 631 631 627 623 621 619 618 617 616 614 612 611 612 613 611 605 596 588 580 576 572 567 559 550 540 528 515 503 492 483 470 459 454 449 449 448 448 453 462 470 480 489 500 511 521 530 536 540 545 553 557 560 562 562 562 564 567 570 571 571 573 578 581 584 589 593 601 607 612 620 624 626 624 620 617 615 613 612 614 616 617 618 620 621 623 624 625 627 629 632 633 633 632 635 630 629 628 628 629 629 629 629 629 627 627 626 623 620 618 616 614 612 610 608 606 600 600 604 602 600 596 594 593 592 590 588 585 581 577 572 569 568 564 560 558 556 558 557 555 552 552 545 538 533 532 531 526 517 513 511 513 510 507 504 506 505 498 496 495 492 483 475 471 466 458 450 444 439 437 433 428 424 421 419 419 415 409 405 402 403 404 407 409 411 409 408 406 400 394 390 390 391 393 397 398 399 400 401 402 399 395 388 383 378 373 368 364 362 361 359 358 356 356 354 348 345 344 342 338 336 336 337 337 336 334 334 334 334 334 334 329 329 330 331 332 330 327 325 323 322 323 322 323 324 324 324 323 324 324 323 323 325 326 326 324 324 323 323 321 319 313 307 303 301 299 298 298 300 301 301 299 298 298 297 297 299 302 305 301 296 292 297 298 302 306 309 310 308 300 292 287 284 284 285 284 280 277 275 274 273 271 271 270 268 266 266 265 263 262 261 261 263 264 265 262 260 259 259 258 262 263 262 264 263 259 257 255 254 251 247 227 229 234 238 250 255 257 257 257 255 254 252 252 252 253 256 262 271 279 285 288 291 294 296 298 297 296 295 299 305 310 312 313 312 311 309 300 292 285 281 278 273 268 262 258 255 251 250 248 247 248 249 247 247 249 249 249 248 248 248 248 247 248 251 250 247 246 244 243 243 246 254 261 261 265 264 252 256 246 245 244 245 245 244 242 241 241 242 242 245 241 242 244 244 243 243 242 241 243 246 246 245 245 246 248 248 244 243 244 244 246 252 251 258 263 262 271 267 268 264 264 269 267 267 267 266 267 269 272 269 277 277 278
551 555 562 565 570 573 575 578 582 585 587 588 589 589 588 586 580 577 570 567 565 566 569 573 573 573 572 570 569 570 573 574 574 577 581 586 593 592 593 590 591 591 594 593 593 593 594 596 598 595 595 594 595 598 600 600 601 597 592 589 585 577 568 557 551 549 550 551 551 548 543 539 543 546 550 555 557 564 565 569 574 576 575 575 575 572 566 561 550 541 534 531 534 547 560 574 576 585 582 583 585 588 591 596 601 606 614 616 621 623 623 624 624 626 623 624 618 612 603 593 586 577 568 563 555 545 539 537 537 541 548 558 561 573 586 599 604 609 610 621 627 630 633 636 638 642 644 645 650 658 662 658 666 671 678 685 691 695 699 706 707 706 705 703 700 696 692 690 687 684 681 679 676 675 674 674 674 671 667 663 661 656 651 648 647 646 645 643 639 636 633 630 630 625 621 617 613 612 611 610 609 609 608 604 597 591 587 582 577 571 565 556 545 534 522 517 511 507 502 500 501 502 506 513 525 532 541 553 565 574 581 587 592 596 602 606 613 621 625 629 634 638 641 647 649 651 654 656 656 654 656 659 662 665 669 671 675 678 679 681 682 681 674 670 666 662 657 652 653 650 649 646 644 644 638 633 631 629 625 622 623 623 624 625 621 618 615 612 612 612 612 610 606 602 600 599 599 598 594 590 584 579 575 570 563 554 547 535 521 499 491 478 467 459 455 450 448 449 449 454 461 469 480 494 508 520 528 536 542 547 552 556 563 568 571 574 577 578 580 580 581 584 586 589 593 596 598 602 608 615 623 631 639 640 640 639 633 632 629 627 623 623 624 625 625 625 625 626 627 627 627 628 629 630 631 630 626 624 623 623 622 623 623 621 621 620 620 622 622 622 621 618 616 615 613 612 611 609 609 610 610 609 603 599 597 598 597 595 594 592 590 586 584 582 578 578 572 568 567 566 566 564 561 552 549 549 549 544 538 531 525 525 525 523 521 517 516 514 513 511 506 497 490 479 475 469 462 454 447 440 432 429 426 425 425 425 424 418 413 410 410 412 416 419 419 417 415 411 408 404 399 395 394 395 398 401 403 404 406 408 410 406 398 392 386 380 376 371 367 365 364 363 361 360 358 354 354 350 352 351 346 343 342 341 340 340 340 339 339 337 336 335 334 333 333 334 334 333 331 329 329 328 329 330 328 327 329 329 328 326 323 321 323 324 324 324 325 325 322 319 315 311 307 304 304 304 302 302 298 296 297 299 299 299 298 297 298 300 303 305 306 296 298 299 301 303 307 310 308 302 296 291 288 286 285 286 285 283 279 275 275 277 277 275 274 272 269 266 264 262 261 261 263 263 263 263 263 262 261 259 259 260 261 261 261 262 262 261 259 258 249 250 233 227 222 236 251 260 261 260 259 257 254 251 250 249 247 249 255 267 276 284 287 290 293 295 297 298 300 301 304 306 308 311 312 310 306 302 296 285 281 272 268 264 262 259 257 251 247 244 242 240 242 244 245 246 247 247 247 246 246 245 246 249 251 253 254 253 251 247 244 244 249 256 263 269 265 256 260 251 250 246 244 244 244 244 244 242 241 242 243 249 242 243 246 246 243 241 241 240 242 244 245 245 243 243 244 244 245 243 241 240 242 251 261 258 263 258 263 277 280 274 272 269 272 271 272 273 270 269 270 270 271 273 276
561 566 571 576 579 581 584 586 589 591 593 595 596 597 596 596 593 591 590 583 578 576 577 579 579 580 576 575 575 577 577 589 590 592 595 598 596 595 596 597 598 598 599 605 606 607 608 607 606 601 599 598 600 602 601 601 604 604 600 599 593 586 578 568 562 558 557 556 556 552 548 546 545 552 559 564 560 563 569 574 578 580 580 580 582 581 573 562 555 547 539 535 545 546 556 566 571 574 579 584 587 587 591 596 600 604 614 621 624 628 628 627 625 626 624 619 612 602 596 587 582 575 561 555 548 545 540 538 538 543 549 559 571 583 593 599 608 612 617 626 634 638 643 649 653 658 665 665 667 676 680 678 682 688 693 700 707 710 713 716 716 713 709 706 704 701 697 694 689 685 682 679 675 670 667 665 660 657 656 652 648 643 639 634 633 633 634 633 632 631 627 623 618 615 610 606 604 601 599 598 596 595 591 586 581 576 572 571 569 565 558 551 540 528 519 511 507 504 504 504 502 507 516 529 532 537 548 557 571 578 588 589 601 606 613 620 626 633 639 644 648 651 653 658 660 664 670 668 669 670 674 677 680 681 682 683 684 686 686 685 684 683 681 676 671 671 665 659 655 652 650 645 641 638 635 633 630 624 619 617 614 612 611 609 609 608 607 607 608 607 606 604 600 596 593 591 589 588 588 586 582 582 572 571 565 556 548 537 524 497 483 478 470 466 461 459 452 450 451 456 463 473 484 498 513 526 533 539 547 555 561 568 575 583 589 591 590 590 590 589 590 593 595 599 600 601 604 610 616 622 631 638 645 645 644 642 640 638 636 634 634 633 634 635 635 636 636 636 636 634 632 630 629 629 628 625 621 618 618 618 617 616 613 610 608 607 607 609 611 614 616 616 615 614 612 610 607 607 608 608 609 611 607 605 604 602 602 602 603 603 600 597 594 591 588 587 581 580 579 578 577 575 570 569 563 559 556 553 550 545 538 538 533 533 529 527 524 521 517 514 508 503 490 480 474 471 466 459 452 446 441 435 431 430 431 431 429 425 421 419 419 420 425 425 423 417 413 409 406 402 400 398 398 399 400 402 406 411 415 416 416 412 403 396 389 385 381 375 371 367 365 364 366 367 366 361 359 361 362 361 358 354 351 350 349 346 346 346 346 344 343 342 340 339 338 338 337 336 335 334 335 336 335 334 333 333 333 332 329 330 329 328 328 325 322 322 321 321 318 316 314 312 309 306 305 306 306 305 302 299 296 295 297 297 297 299 302 301 301 302 302 300 298 300 302 304 304 304 302 298 294 290 286 283 283 283 283 281 276 272 271 270 272 274 274 272 270 269 266 263 264 266 267 267 266 266 264 263 261 261 260 261 263 263 264 265 264 261 257 254 252 250 247 233 236 243 250 258 258 258 257 255 253 253 253 250 249 251 256 264 273 279 281 284 287 291 294 297 300 302 303 304 304 304 302 300 298 297 292 283 273 265 263 260 257 255 254 250 248 247 243 240 241 244 246 247 247 248 247 246 247 248 247 247 251 254 258 258 257 252 250 252 257 265 272 274 265 256 250 245 250 247 244 243 244 243 244 244 244 245 244 242 245 241 242 243 242 241 240 241 242 243 243 243 243 245 246 247 248 247 245 242 242 249 260 258 263 261 278 284 282 279 274 270 266 270 272 274 274 272 272 271 272 274 277
574 577 579 582 586 588 591 594 597 600 604 607 609 607 603 600 599 599 599 594 591 587 586 588 589 587 588 591 593 594 596 604 606 606 607 608 608 606 606 607 610 613 614 618 617 616 613 613 611 618 612 608 607 608 607 610 609 610 610 609 605 597 588 583 575 570 566 562 559 555 554 554 554 556 562 566 571 571 576 580 583 584 584 584 585 585 580 573 565 552 542 547 545 552 560 567 571 572 575 578 584 589 595 603 605 609 616 620 622 627 624 624 622 620 620 612 603 593 587 581 575 561 560 553 552 548 544 544 546 552 559 566 578 583 592 602 611 617 624 634 639 642 648 654 660 667 671 677 679 681 685 686 690 697 705 711 717 725 730 728 726 722 717 711 708 707 702 698 694 689 685 683 678 674 672 669 664 658 652 649 643 636 631 627 624 624 626 627 627 627 623 615 608 604 599 596 594 593 591 587 583 579 578 569 568 566 564 560 558 554 549 541 533 526 515 510 509 507 506 508 513 520 531 541 545 549 554 560 572 582 588 590 596 607 617 627 636 644 650 654 659 661 671 672 673 674 677 677 676 681 687 692 697 698 695 691 688 688 688 687 686 685 682 677 674 673 668 664 661 657 653 646 640 634 634 632 629 623 618 614 611 608 607 606 604 603 602 602 602 601 601 599 595 588 582 577 577 576 575 573 570 569 566 563 559 554 554 545 527 502 490 482 476 467 461 457 454 457 457 458 464 472 483 497 513 524 534 544 555 565 573 581 590 598 601 602 602 602 600 598 600 601 602 603 604 607 611 616 622 627 632 639 644 648 649 649 649 647 644 641 639 645 646 647 649 652 652 649 646 642 637 634 630 625 622 619 616 612 612 612 612 609 605 602 599 596 595 595 598 600 601 604 604 602 600 597 596 597 599 602 600 601 602 601 600 599 599 597 599 600 601 602 602 601 600 600 594 590 586 583 582 580 576 573 570 568 568 567 564 561 558 549 546 543 539 536 534 532 525 517 510 503 491 483 475 470 469 466 462 456 451 447 442 438 437 436 434 431 427 426 428 431 430 426 421 415 412 410 409 408 407 406 404 405 407 411 418 420 421 420 417 413 407 401 394 391 387 382 376 372 371 376 380 380 377 373 371 371 372 371 367 360 356 355 353 351 350 350 349 348 347 347 346 345 342 341 340 339 339 339 340 342 342 341 340 340 340 338 339 338 336 333 328 322 320 318 316 314 313 313 313 312 308 306 305 307 308 306 304 301 300 299 298 299 300 300 301 301 302 302 300 299 299 299 300 299 298 297 296 293 290 287 283 280 278 277 277 276 273 271 272 272 272 271 272 271 269 267 266 264 263 264 266 267 267 266 265 264 259 257 257 261 263 263 261 260 259 257 254 250 245 244 241 240 244 252 255 253 255 255 257 256 254 254 255 256 257 260 264 269 274 277 278 279 283 286 291 297 301 302 302 302 301 297 293 291 292 293 291 286 279 273 269 263 257 255 253 248 244 242 241 242 242 244 243 244 244 243 242 244 247 247 246 247 248 249 251 254 254 255 258 263 269 270 279 271 259 246 242 239 244 244 245 246 246 245 245 246 247 247 247 243 242 245 240 242 242 242 240 239 240 242 243 243 243 245 248 251 253 252 251 249 248 250 259 269 263 285 291 290 290 277 272 267 264 268 268 270 273 275 275 275 276 277 280
588 589 589 591 593 595 596 598 603 607 611 615 617 614 610 605 602 601 601 602 600 598 597 599 596 599 604 610 616 620 619 621 618 617 617 618 621 621 620 620 621 623 624 624 622 621 624 626 622 627 626 622 620 617 616 619 620 622 622 620 614 605 598 591 587 583 576 572 568 563 559 558 557 560 566 571 576 582 583 589 589 588 588 588 587 584 582 576 567 569 564 560 558 561 566 571 576 580 584 590 596 602 606 610 615 623 628 631 632 629 625 621 618 614 607 602 595 587 580 574 569 564 559 555 556 555 554 553 555 560 570 572 578 583 591 601 611 618 626 633 634 639 651 658 667 677 687 690 692 692 694 697 699 708 718 724 728 735 739 738 738 736 729 719 713 710 708 705 702 698 694 689 684 680 678 675 671 664 657 649 642 636 632 628 626 624 622 621 619 617 614 608 604 601 595 593 590 587 586 582 577 573 562 558 554 551 550 549 547 541 535 527 522 518 513 509 510 509 512 519 528 539 552 555 558 559 559 563 578 583 590 591 610 614 617 631 635 643 648 653 659 667 673 677 681 679 687 692 699 704 704 706 709 708 705 703 702 702 701 698 694 689 689 684 679 676 673 671 668 664 659 653 648 643 639 633 629 626 623 619 615 613 610 606 603 601 600 599 599 598 596 593 588 583 579 574 571 568 565 562 560 559 557 554 552 549 551 540 524 514 503 492 479 470 464 458 455 455 456 458 463 475 487 499 513 524 535 547 559 570 580 589 597 604 609 610 613 615 618 618 616 614 612 613 614 617 617 625 628 633 638 642 647 652 657 660 662 660 657 655 656 657 658 658 660 660 660 657 654 648 641 638 631 625 619 614 610 606 604 602 600 597 594 591 588 586 585 584 584 584 586 587 588 588 587 586 586 586 586 587 586 588 591 591 591 592 592 591 592 592 594 595 599 604 607 600 603 597 592 588 585 583 581 578 576 575 575 575 574 571 570 568 565 562 555 549 543 539 531 524 520 510 498 488 483 478 474 473 469 463 457 453 450 448 447 444 439 436 432 432 434 436 433 427 422 418 416 414 413 410 408 407 407 409 413 418 423 425 423 420 417 413 409 406 403 400 394 384 378 378 379 383 385 385 381 379 380 382 381 378 373 369 367 359 358 360 359 356 355 353 352 352 353 353 351 350 349 346 345 345 345 345 343 341 341 342 344 346 346 344 340 334 327 324 323 319 315 312 311 309 308 309 309 308 306 307 307 307 306 304 303 303 302 303 303 303 305 305 305 304 304 306 306 304 304 306 307 304 302 304 298 288 283 279 280 279 277 277 274 272 272 271 269 268 268 269 270 268 265 263 261 260 260 261 263 263 263 261 258 256 257 259 258 256 253 251 252 252 251 248 242 236 237 240 241 251 256 256 255 255 256 257 257 258 261 263 267 269 272 276 279 281 283 284 289 294 299 302 303 303 303 301 299 294 292 290 291 291 291 287 281 275 269 264 259 256 252 251 249 247 245 244 244 244 240 240 242 244 243 244 245 245 245 246 247 248 249 251 250 254 260 272 274 278 281 280 257 244 237 239 239 242 243 245 245 245 245 246 247 248 249 247 245 243 245 241 241 241 241 242 244 247 249 251 250 250 251 253 254 254 253 255 257 260 264 271 288 290 291 288 283 267 266 265 270 269 270 271 273 276 278 277 277 278 281
593 594 596 598 600 604 610 615 619 621 622 624 624 623 619 615 612 610 611 614 614 615 614 616 615 620 625 629 633 641 638 632 630 631 633 636 643 642 640 639 638 636 637 638 638 636 636 637 635 642 642 640 639 637 636 634 635 635 634 629 623 614 607 600 596 590 587 584 580 571 565 561 560 563 569 579 586 591 594 597 592 593 593 596 593 591 586 580 582 577 574 569 566 567 571 574 582 591 598 603 609 616 621 624 626 629 632 634 632 629 625 617 614 611 603 599 594 587 580 572 565 560 556 556 555 557 558 560 564 569 574 579 586 592 599 606 614 623 631 638 640 646 653 662 674 684 694 706 707 707 708 710 713 724 732 739 740 745 744 746 746 744 740 736 731 725 720 717 712 709 704 699 693 691 690 688 684 677 668 659 652 647 641 637 633 629 628 626 623 619 615 612 608 604 597 592 588 583 580 578 577 569 561 556 552 548 544 542 538 532 528 523 521 520 519 518 519 518 524 534 546 561 567 571 574 577 578 576 578 592 597 605 611 616 619 627 634 639 647 653 658 667 677 686 693 698 703 709 715 718 720 718 714 715 715 712 709 708 705 704 702 703 699 693 687 682 677 674 671 668 663 659 655 651 647 643 640 635 630 626 622 617 612 608 604 599 595 594 592 589 588 586 585 584 583 577 570 563 559 556 554 551 549 548 547 544 544 538 524 517 509 498 489 472 465 461 457 456 457 459 465 475 486 500 515 531 544 558 571 582 591 595 601 610 616 620 620 623 628 630 631 632 631 631 632 632 632 633 635 638 643 648 655 663 669 673 675 676 675 674 672 668 666 662 665 665 665 664 663 658 653 641 633 630 623 616 604 600 598 596 594 591 588 585 583 580 577 575 572 571 570 569 568 570 573 575 578 578 577 577 578 579 581 581 581 583 584 582 580 580 582 582 586 592 597 600 599 596 594 592 593 591 592 588 586 584 582 581 582 581 579 578 576 572 566 561 554 550 545 540 532 522 512 504 498 492 486 483 480 474 466 459 455 453 453 449 443 440 439 437 438 438 435 431 427 424 423 422 419 417 414 415 416 417 419 422 426 429 430 425 419 415 414 415 415 410 404 397 392 389 389 389 390 391 390 389 389 388 386 383 379 378 375 372 369 368 367 366 363 362 360 359 359 359 359 358 358 358 357 354 354 353 352 350 347 347 347 347 345 341 337 333 327 323 319 315 313 312 310 307 303 303 305 303 302 302 305 307 306 306 305 307 309 312 312 310 310 311 304 300 305 305 304 306 309 312 313 310 308 304 299 294 289 287 284 283 283 283 281 280 277 273 269 267 267 266 267 268 269 268 263 259 258 258 260 260 259 258 258 257 257 256 255 250 245 244 245 248 248 245 235 237 239 241 242 248 252 256 255 258 256 260 263 264 267 270 271 275 278 281 284 286 290 294 297 302 305 306 304 305 303 301 299 297 296 294 293 293 293 287 281 277 270 264 260 256 248 245 244 244 243 242 243 244 245 244 246 247 248 246 243 243 243 245 246 248 248 247 247 257 263 276 278 287 281 277 255 249 242 240 240 241 243 244 246 246 248 248 247 248 248 247 245 242 242 246 244 245 248 251 254 257 257 256 254 254 256 257 257 256 256 257 261 265 260 278 285 293 297 287 284 272 268 275 274 271 269 268 270 272 276 279 281 284 283
603 604 606 608 613 617 621 620 622 622 624 626 630 629 627 624 622 621 622 624 623 623 625 624 626 630 634 638 648 649 651 654 655 656 661 661 661 659 656 651 653 655 655 659 655 655 650 646 642 649 646 648 646 644 645 648 651 650 646 633 627 620 613 607 609 603 603 598 592 579 573 568 566 572 583 593 599 602 606 608 611 609 609 607 605 605 596 592 591 582 578 578 576 576 581 587 594 601 607 613 620 626 630 631 632 635 634 634 631 628 623 618 614 610 605 600 596 589 582 573 565 560 556 554 555 556 556 561 569 574 580 588 597 603 610 614 619 625 632 643 649 652 658 669 685 700 708 716 717 720 722 725 731 737 742 747 751 754 755 752 751 749 745 741 736 732 728 725 722 718 715 711 708 704 701 700 698 694 686 676 669 663 656 651 643 637 633 629 626 623 621 618 613 609 600 592 588 583 579 575 573 570 565 560 555 550 545 541 537 533 531 529 527 529 531 534 534 536 542 556 565 571 575 579 582 586 589 593 594 597 606 613 612 623 624 627 635 644 646 653 661 670 678 686 694 701 706 713 719 724 724 726 726 726 725 723 718 714 710 706 708 705 703 699 693 687 681 677 675 672 668 661 657 654 651 647 642 636 630 625 620 616 612 608 604 597 591 588 586 584 582 582 584 585 583 576 568 560 556 553 551 549 547 544 542 540 540 537 531 517 510 500 491 485 477 462 454 454 457 461 469 478 491 506 517 535 547 565 577 585 595 600 608 619 624 628 633 636 638 641 642 642 641 639 638 638 639 641 644 648 654 660 667 674 679 682 684 686 688 690 690 687 684 681 677 675 674 674 672 667 657 648 638 629 626 617 606 603 600 597 593 588 584 580 579 576 573 568 565 563 560 560 559 560 561 563 563 564 564 565 565 564 564 565 566 566 565 566 567 568 569 571 574 577 579 581 583 585 586 588 588 589 589 588 586 584 585 583 583 584 583 583 583 578 570 564 558 553 549 546 543 538 528 518 511 508 503 498 494 489 483 475 467 461 458 455 456 454 455 454 451 448 445 439 434 430 428 428 425 423 424 426 426 426 430 431 432 431 432 430 426 423 421 419 417 414 411 404 399 395 394 395 396 396 399 400 398 396 392 390 390 388 385 383 379 376 374 373 371 372 372 371 370 370 373 374 372 370 370 369 367 366 364 364 362 359 353 348 344 340 335 332 330 325 318 312 311 312 310 307 304 303 304 305 303 302 303 306 309 307 307 310 312 317 319 321 323 316 311 307 309 308 308 309 309 309 310 316 308 305 301 298 295 294 292 289 288 284 282 280 278 273 271 269 269 268 269 272 272 269 267 265 263 258 256 255 255 257 258 259 257 254 250 247 244 245 246 246 248 245 242 240 245 244 242 246 251 254 258 257 257 260 265 268 271 271 274 280 286 291 294 297 301 302 305 307 309 311 312 311 308 305 302 300 299 296 292 290 288 285 281 277 269 264 260 253 247 244 240 239 241 242 244 243 243 242 243 243 244 246 245 244 242 242 244 247 247 247 251 267 275 277 280 278 280 269 251 250 248 247 247 245 244 243 244 243 244 247 249 249 246 246 247 247 249 251 257 257 257 259 260 259 258 258 257 256 256 255 254 253 254 257 262 265 272 276 287 281 285 284 282 279 281 283 282 277 272 269 269 271 274 278 283 285 286
609 616 618 621 625 627 631 629 631 632 632 633 636 634 631 630 630 631 633 634 635 632 636 640 647 651 654 661 664 665 667 667 666 669 669 668 666 665 663 663 662 667 663 666 670 671 667 669 660 655 652 656 656 656 657 659 663 661 655 646 637 629 622 620 618 619 612 609 602 592 587 583 582 587 596 606 612 614 617 619 618 619 620 623 623 619 613 611 602 592 586 582 583 584 588 598 606 610 615 618 627 630 633 635 636 636 640 635 631 629 623 618 612 609 603 599 593 586 578 572 564 559 558 557 557 558 561 568 569 577 587 601 608 614 618 620 624 628 635 646 653 658 663 673 689 703 719 722 723 728 729 732 734 740 749 753 758 763 766 767 762 758 752 748 744 739 731 725 719 717 714 712 710 709 707 704 701 697 690 682 676 669 662 654 645 638 632 628 622 617 616 615 612 605 598 593 585 580 575 574 573 572 569 564 558 552 546 540 536 535 533 533 536 539 543 546 544 550 554 566 574 580 584 589 593 598 601 609 609 610 614 617 629 630 637 641 647 651 655 659 666 673 680 684 689 695 703 711 718 722 724 726 730 728 727 725 720 716 713 711 707 703 699 695 689 684 682 679 675 671 668 664 660 656 653 651 647 640 632 625 619 615 610 607 603 597 593 590 587 585 582 581 581 580 575 568 560 554 551 549 547 544 543 540 538 535 537 534 529 518 509 501 494 487 482 472 464 458 461 469 476 485 496 508 521 530 546 564 565 576 591 607 614 621 625 633 640 644 646 647 648 649 649 649 648 650 655 658 662 665 669 673 679 683 686 688 690 692 693 694 695 693 690 685 680 677 675 674 672 669 662 653 643 635 629 623 612 609 605 602 597 589 582 578 574 569 565 563 557 556 555 552 550 549 550 549 549 549 548 547 545 542 542 544 546 549 553 555 557 560 562 564 566 568 569 570 572 574 576 578 578 579 579 578 577 577 577 575 574 575 577 579 578 572 569 567 563 560 555 550 550 547 544 537 529 525 517 511 509 506 500 493 481 474 472 467 467 469 471 470 468 460 452 446 441 438 437 435 433 431 432 432 436 438 441 442 443 443 440 437 435 432 430 427 424 420 416 412 409 406 404 401 401 402 406 408 409 408 406 403 402 400 395 388 381 376 375 376 378 379 380 381 381 381 380 381 383 384 383 380 377 375 374 372 371 368 362 356 346 342 337 332 330 326 323 320 315 316 315 313 311 309 306 305 306 306 307 308 309 309 309 312 314 317 321 324 326 320 320 315 311 308 307 308 310 311 311 309 306 303 302 300 297 294 292 291 289 283 279 278 277 276 270 269 270 268 267 266 266 266 267 266 263 258 254 253 253 253 253 253 254 254 252 255 254 249 250 251 252 254 252 249 246 244 245 249 252 255 256 256 257 261 265 266 273 280 284 289 296 299 302 304 307 309 311 312 314 316 318 316 313 310 308 307 304 300 294 293 283 281 280 279 277 271 265 257 250 246 240 241 242 240 241 242 243 243 241 240 244 247 247 247 245 244 245 246 245 245 256 270 282 279 278 283 268 257 252 249 247 246 246 246 242 241 241 240 243 249 251 249 247 246 249 254 256 258 262 266 265 264 260 257 256 255 254 254 253 254 254 253 254 261 268 268 272 273 275 281 278 279 281 283 284 285 286 284 280 275 273 273 276 279 284 285 285
613 620 623 625 631 633 631 634 636 638 639 642 645 647 644 642 641 643 643 645 645 646 649 653 656 658 662 666 670 674 674 674 677 678 679 679 676 673 671 669 669 674 676 672 680 683 683 684 680 674 670 669 667 670 673 676 676 674 669 662 653 649 643 638 634 631 624 621 615 605 601 598 597 600 607 617 625 627 631 632 636 636 639 640 638 633 630 622 619 612 594 589 587 587 593 601 608 614 619 627 633 638 638 640 645 646 648 644 639 634 629 621 614 609 608 599 592 585 578 573 568 564 563 562 558 558 562 567 573 581 590 601 615 622 624 625 629 634 639 647 656 663 669 681 695 713 723 726 728 730 737 743 751 758 760 763 767 771 773 770 767 761 757 754 751 746 741 732 723 719 716 715 714 713 712 708 699 690 683 677 672 668 661 653 647 641 633 627 621 617 614 611 607 600 594 592 586 580 575 573 570 568 566 563 558 552 548 545 540 539 540 542 544 546 548 548 554 564 571 580 586 591 597 602 606 610 620 626 626 625 627 634 642 647 656 663 667 671 673 671 677 683 688 691 694 698 704 709 714 716 717 720 724 721 719 715 710 704 702 702 703 702 700 695 691 686 683 680 677 674 670 666 662 659 656 653 648 641 635 629 624 618 614 610 606 602 598 595 594 590 587 584 580 577 571 564 558 552 549 546 545 544 542 538 534 531 529 529 526 520 513 504 495 487 479 467 463 464 468 474 480 488 494 505 517 528 542 559 571 578 597 603 610 616 622 628 636 646 654 659 661 661 661 662 663 665 669 672 674 675 680 684 687 689 690 692 693 694 693 691 688 685 681 679 677 672 669 668 667 664 660 652 644 639 633 625 616 611 608 604 600 592 585 579 574 570 567 564 560 558 554 551 547 544 542 541 538 536 535 533 532 531 530 530 531 532 530 531 534 538 543 548 550 549 550 555 560 564 568 570 571 571 569 568 567 566 565 566 565 564 564 563 561 566 563 564 564 562 561 559 554 551 548 544 539 534 529 523 518 515 510 503 498 493 490 485 484 484 484 484 481 473 463 456 451 448 447 445 443 442 441 440 442 445 445 447 447 445 442 440 438 436 434 430 424 420 418 417 414 410 406 406 406 408 411 412 413 411 409 407 406 403 400 398 393 386 381 379 379 382 386 386 385 384 384 385 387 390 390 388 382 377 372 370 367 364 362 358 351 343 336 332 331 330 330 327 323 323 322 319 317 314 309 306 307 308 310 314 316 315 316 317 316 315 316 316 318 320 320 317 313 311 311 312 313 313 312 310 310 307 305 304 301 297 294 292 288 284 282 282 280 276 272 270 268 266 263 261 260 261 263 262 262 260 255 253 252 251 252 254 256 256 254 255 261 264 260 258 258 258 257 257 254 249 248 250 253 261 257 259 262 265 268 272 283 295 292 297 302 305 309 312 313 313 314 316 318 319 321 321 317 313 310 308 306 304 296 286 281 278 277 274 271 269 265 259 254 248 242 241 242 244 244 244 245 244 244 244 245 246 245 245 244 243 244 245 245 247 251 261 275 277 283 265 256 250 249 247 248 249 249 247 243 242 244 244 244 246 247 246 248 249 252 256 262 261 262 264 260 260 257 256 255 255 255 253 252 254 256 258 262 269 278 274 273 270 272 272 274 277 281 282 284 283 283 285 286 285 281 280 279 279 279 282 285
602 606 611 616 623 628 631 633 636 640 643 650 653 656 657 656 655 654 655 656 657 658 659 663 666 667 671 675 678 680 682 686 691 693 696 700 699 699 698 698 701 705 705 704 705 705 705 706 705 703 698 694 690 686 686 687 686 684 678 673 667 664 659 654 650 645 639 632 624 619 614 612 612 615 618 626 633 636 643 647 650 648 651 651 650 649 641 635 629 615 609 601 594 588 594 604 614 623 630 638 643 648 650 655 661 657 655 649 647 645 639 631 623 615 609 603 598 588 584 582 577 574 571 564 565 570 572 576 581 589 598 609 622 631 631 630 634 640 647 653 662 670 677 687 697 707 716 722 730 735 739 748 754 760 766 769 771 771 767 762 758 757 754 751 749 744 743 734 723 719 717 716 715 714 708 698 690 680 670 665 661 656 649 643 636 629 621 615 608 605 604 605 604 595 592 588 585 580 574 569 565 562 561 559 555 552 548 545 545 547 549 551 553 553 557 560 574 581 586 594 598 605 611 617 624 633 639 643 644 647 649 653 658 663 668 673 677 680 680 685 688 693 697 699 700 701 703 706 708 711 713 716 717 711 708 706 704 701 700 700 701 700 697 692 688 685 681 678 676 674 672 669 665 662 658 654 650 646 639 631 625 620 616 612 610 607 605 602 598 594 590 584 578 572 567 561 557 552 549 546 546 544 541 538 534 531 529 528 523 518 515 507 499 494 480 478 470 469 467 471 480 484 491 501 511 522 541 560 573 575 584 599 609 615 621 626 632 642 651 661 665 668 670 671 672 673 675 677 679 684 688 691 693 694 694 693 692 690 687 684 683 681 678 676 673 670 668 667 665 659 653 646 640 636 632 624 615 611 609 605 600 595 589 584 579 573 571 563 559 557 554 551 546 540 535 533 531 530 529 526 523 522 522 519 519 519 516 517 519 521 523 526 530 533 538 541 546 549 553 556 558 559 560 560 561 561 560 559 557 556 555 553 552 551 552 552 556 553 557 554 550 549 548 546 543 540 536 533 530 527 522 515 508 508 501 496 495 495 495 494 490 483 474 467 462 457 455 454 452 450 449 448 449 450 449 447 444 443 441 439 439 438 436 433 428 423 420 417 415 414 412 410 406 406 406 405 404 403 402 400 398 397 396 396 393 390 388 384 382 382 383 383 385 387 392 394 397 392 392 384 381 375 369 356 352 351 351 349 345 340 331 327 327 327 326 324 323 322 324 324 322 318 314 311 310 310 313 317 320 321 320 319 318 318 318 316 316 320 320 318 317 317 319 317 316 316 317 317 313 310 308 307 304 301 298 296 294 290 285 281 278 274 272 269 266 263 262 260 257 257 258 260 262 262 257 254 252 252 253 255 258 260 260 261 261 261 261 261 260 260 261 260 257 254 244 245 249 252 258 259 260 263 270 280 290 290 299 300 301 302 303 305 309 313 314 315 315 315 317 318 316 315 313 311 312 310 302 286 276 276 273 272 270 269 263 258 255 251 247 246 248 248 248 248 248 246 246 247 247 246 243 241 242 244 245 245 244 248 252 257 264 262 264 256 245 243 244 245 246 249 249 247 245 245 249 251 250 247 247 250 253 259 262 264 264 263 259 257 258 254 257 255 254 254 252 252 254 256 259 263 269 274 281 275 272 269 267 267 271 275 280 282 285 285 285 286 288 290 292 287 282 278 279 282 285
591 596 601 608 615 619 622 624 625 627 631 637 648 654 659 660 660 660 661 662 663 663 667 672 676 679 681 684 686 686 687 685 692 700 704 707 711 714 716 719 722 723 727 723 721 718 716 715 713 711 710 710 709 708 705 701 699 693 684 677 673 673 671 668 664 658 651 642 634 628 625 627 631 634 633 635 639 644 649 651 654 657 659 665 665 661 653 647 641 634 624 611 604 601 608 616 625 637 646 653 656 662 663 666 667 668 665 658 654 653 647 640 633 626 620 613 601 595 591 588 582 578 577 576 575 578 583 587 588 595 604 615 629 639 640 641 646 651 657 665 673 679 686 695 704 712 718 723 734 740 745 753 760 764 767 768 764 759 755 753 750 750 747 744 743 740 734 725 719 715 712 710 706 700 693 686 677 666 658 654 649 641 633 627 621 613 607 602 598 594 590 584 584 582 581 582 581 577 570 562 559 556 553 549 546 547 544 545 545 548 553 557 560 560 569 578 588 595 600 602 611 617 624 630 636 644 647 653 658 660 663 667 673 677 680 681 685 688 689 693 695 698 703 704 704 703 702 703 704 706 708 709 709 704 702 700 698 698 698 697 698 696 692 688 685 681 678 674 670 666 663 661 659 659 657 654 652 647 642 636 630 625 622 622 615 616 609 604 599 595 592 582 576 572 568 564 560 556 554 552 551 550 546 540 535 530 526 523 519 516 513 508 503 499 491 484 473 469 468 469 479 487 496 503 512 524 542 556 568 574 578 587 600 607 615 620 625 634 640 648 655 667 672 677 677 679 681 686 692 696 701 701 699 697 695 692 686 682 680 679 680 683 678 676 674 671 669 666 660 654 649 645 641 637 632 626 621 617 613 612 608 600 593 587 581 578 574 570 568 562 557 549 542 537 533 530 528 528 525 520 516 514 511 510 510 508 507 507 508 510 511 513 514 517 521 524 528 532 539 544 550 551 551 551 550 549 549 547 544 543 542 541 539 540 539 538 536 537 539 542 545 542 540 540 542 542 541 540 538 534 529 525 519 514 510 512 514 515 509 506 497 494 486 481 477 472 467 464 460 458 454 452 450 449 448 446 444 441 441 439 437 435 434 430 425 421 418 415 414 411 408 406 403 400 399 399 399 400 400 398 395 393 393 392 389 386 385 386 385 383 381 381 383 385 389 392 393 390 388 384 379 366 358 349 344 343 341 337 334 329 323 321 322 322 320 320 317 317 321 322 322 318 315 313 313 313 315 318 319 320 320 320 319 320 321 323 324 324 324 325 325 326 326 323 321 320 321 321 319 314 311 309 307 306 305 302 297 294 287 281 277 273 273 273 270 270 271 269 267 264 261 260 259 258 258 255 254 254 253 253 255 256 258 260 262 263 263 261 259 259 258 258 254 246 246 244 242 249 255 260 262 265 269 277 284 285 289 292 292 295 299 304 308 311 314 316 317 316 315 314 316 316 314 311 311 312 307 296 284 275 275 268 265 266 264 258 256 254 251 251 251 250 248 248 248 249 247 246 245 242 241 243 243 244 244 245 246 248 251 256 256 255 248 245 244 244 245 246 248 250 251 253 253 252 253 254 252 251 252 256 259 262 263 264 266 265 261 256 253 254 260 261 259 255 252 253 254 255 258 264 269 273 275 275 272 269 269 270 272 274 277 282 287 289 286 286 291 294 294 289 285 283 281 285 289
584 589 592 596 600 604 608 611 613 616 618 624 631 640 650 656 660 663 665 666 668 670 675 681 685 688 691 692 691 691 692 696 700 704 708 714 718 719 719 722 723 722 723 721 722 720 719 719 717 714 713 712 712 711 710 707 703 698 689 682 677 675 675 674 670 664 657 648 642 638 637 641 645 647 648 649 652 656 663 669 673 675 674 676 678 681 675 669 655 647 636 627 617 621 623 629 638 649 656 660 665 668 674 680 681 682 680 673 665 656 649 644 637 631 624 616 607 601 596 592 590 583 582 581 585 589 600 600 607 610 617 625 643 650 653 656 661 668 673 674 679 686 693 701 710 716 720 725 731 740 745 748 754 761 761 758 754 752 747 744 745 743 740 737 736 734 727 719 713 709 705 703 695 688 681 674 666 658 648 639 630 623 616 611 606 603 601 596 591 586 580 577 579 577 577 578 577 576 573 569 564 561 556 551 549 546 546 546 547 551 557 558 570 581 584 593 600 605 611 619 622 627 635 642 647 649 651 661 669 674 677 682 685 686 686 685 687 687 692 697 700 703 706 708 709 709 707 705 703 702 703 703 704 700 699 697 695 693 692 691 689 688 687 684 682 678 674 669 664 658 653 650 646 646 647 643 639 636 634 629 624 619 618 612 610 609 605 602 597 592 586 581 576 573 571 567 564 560 557 554 551 548 544 539 534 529 525 522 519 517 513 511 508 505 494 486 480 477 475 475 481 489 497 509 517 527 538 549 561 567 576 585 596 604 611 615 619 627 633 638 645 654 668 671 675 679 683 688 693 697 698 698 697 694 690 686 682 679 677 677 677 677 675 672 670 665 662 659 654 648 643 638 634 631 629 625 623 620 616 612 610 602 595 589 583 578 574 570 565 558 550 543 536 528 524 521 519 519 518 516 512 507 505 503 502 501 500 499 500 501 504 506 507 509 511 514 518 521 524 528 532 537 540 541 540 538 536 536 534 532 530 529 528 526 525 524 526 529 530 531 532 532 533 531 533 536 537 538 538 536 534 530 527 522 520 519 519 518 516 510 502 493 486 479 475 472 468 463 459 456 453 450 447 445 444 443 440 438 432 430 428 427 429 423 419 416 415 413 413 411 407 402 401 397 396 401 403 402 395 395 394 392 387 383 384 376 374 372 374 375 375 377 381 383 384 388 388 386 381 375 368 361 354 347 342 339 335 329 327 323 317 315 315 315 315 314 313 314 317 319 321 320 320 320 319 319 320 322 322 323 325 326 326 328 331 331 331 331 331 331 332 330 328 328 327 327 326 326 324 321 317 314 310 307 306 305 301 294 287 282 279 280 280 277 274 273 270 270 269 266 261 259 258 258 256 253 253 254 255 255 254 255 256 258 262 263 262 260 260 261 259 255 252 247 243 247 242 250 260 266 268 267 267 272 278 285 288 289 288 291 297 302 307 312 315 317 318 317 316 316 318 318 317 314 310 308 302 292 283 277 277 273 265 262 257 252 254 253 253 252 251 252 252 253 253 250 249 249 247 244 243 242 242 243 245 246 249 255 256 257 253 249 244 242 241 241 242 245 248 252 256 258 258 258 258 258 256 257 257 257 258 258 258 258 260 260 259 257 256 256 256 254 251 250 249 256 256 258 260 265 269 272 275 276 273 271 271 271 271 273 279 285 290 289 285 283 285 287 290 290 285 285 286 289 292
572 577 584 588 592 593 594 596 600 604 613 618 622 628 635 645 652 656 663 666 671 677 680 685 690 693 696 699 698 698 700 702 706 711 715 719 723 726 729 728 729 728 724 721 723 727 726 724 722 721 719 718 717 716 713 710 709 705 698 691 685 684 683 679 677 673 666 658 650 646 645 649 653 655 657 658 662 669 674 680 684 688 687 688 688 689 685 677 669 667 656 642 637 636 638 643 647 654 661 666 671 677 685 691 693 694 691 687 674 664 657 649 641 633 626 621 613 605 599 592 589 589 593 594 596 604 612 612 617 624 631 641 650 659 663 669 672 676 681 683 687 694 702 709 717 722 727 730 735 740 744 747 749 751 754 752 749 746 742 738 736 734 731 729 728 725 720 709 701 698 694 691 686 679 670 663 657 649 637 629 623 617 612 610 607 604 599 594 589 587 585 585 585 581 580 580 580 579 577 577 575 570 564 560 559 553 554 558 560 566 570 578 585 593 599 606 613 617 621 631 636 640 645 649 655 664 670 674 676 680 684 692 697 699 699 698 698 696 698 701 704 707 709 711 712 712 710 707 704 701 701 702 704 699 697 694 690 688 685 682 679 679 679 678 677 675 671 666 657 650 646 642 635 630 627 625 622 619 615 610 605 600 597 596 595 594 591 587 583 581 578 574 573 572 570 568 565 560 555 551 547 542 538 532 527 523 521 519 518 516 515 515 513 502 491 487 483 481 480 484 491 495 500 507 518 524 532 537 545 555 566 578 589 597 605 611 615 619 625 631 642 650 658 666 671 676 683 688 692 693 691 688 685 683 682 680 676 671 669 667 667 666 665 662 659 656 651 645 642 639 636 631 626 622 619 618 620 619 618 612 606 600 596 589 583 579 576 575 565 556 545 536 528 519 516 514 512 512 509 506 499 497 496 497 498 498 497 495 495 495 497 499 502 505 507 510 513 516 521 523 525 528 529 529 529 528 525 524 524 522 519 518 517 517 517 516 517 520 523 523 522 522 523 524 526 524 523 524 525 524 524 523 523 522 522 519 515 510 505 500 494 487 480 475 470 467 461 455 453 451 448 445 442 439 438 437 434 432 424 426 423 418 417 418 414 411 408 407 405 402 399 395 392 390 390 390 391 387 385 386 387 387 384 379 378 368 365 364 366 369 373 374 373 373 374 375 375 372 367 360 353 347 344 341 336 330 326 324 322 322 319 317 316 316 316 315 315 315 318 321 323 324 324 325 326 327 328 330 329 331 334 336 337 336 335 335 336 338 339 338 337 336 337 336 336 333 329 326 323 321 319 317 313 310 307 303 297 290 288 284 280 280 281 280 277 274 271 269 269 267 264 263 262 262 258 254 251 254 257 258 258 258 258 258 261 262 262 262 262 262 263 261 257 253 250 250 255 264 267 269 270 269 272 277 284 290 294 292 298 298 302 307 310 313 316 318 319 318 318 319 318 318 315 311 307 302 295 288 283 279 280 271 266 260 251 246 248 249 248 251 255 258 258 258 258 254 250 248 246 246 246 246 246 247 249 251 253 256 256 251 248 249 246 243 242 241 240 245 250 254 258 261 259 258 256 256 256 257 255 254 254 254 254 255 256 258 258 258 258 257 256 255 254 254 259 257 257 259 262 267 271 273 272 272 271 269 267 267 269 272 280 286 288 284 281 278 278 282 288 291 291 290 291 293 297
